-24.589 -90.4738 -75.7417
-24.4361 -90.4675 -75.7119
-24.2774 -90.4524 -75.6281
-24.144 -90.4758 -75.7819
-24.0013 -90.4852 -75.849
-23.8547 -90.4888 -75.8802
-23.7119 -90.4984 -75.9481
-23.5722 -90.5128 -76.0463
-23.4359 -90.533 -76.1802
-23.2841 -90.5287 -76.1624
-23.1308 -90.522 -76.1299
-22.9773 -90.5149 -76.0951
-22.823 -90.5064 -76.0517
-22.6742 -90.5067 -76.0623
-22.534 -90.5214 -76.1618
-22.3677 -90.4928 -75.9943
-22.2093 -90.477 -75.9055
-22.0615 -90.4791 -75.927
-21.9197 -90.4912 -76.0108
-21.7811 -90.5091 -76.1302
-21.6276 -90.5016 -76.0926
-21.4717 -90.4898 -76.0282
-21.3148 -90.4761 -75.9523
-21.1708 -90.485 -76.0161
-21.0178 -90.4779 -75.9808
-20.8634 -90.4683 -75.9303
-20.7101 -90.4605 -75.8908
-20.5554 -90.4501 -75.8348
-20.3996 -90.4376 -75.7663
-20.2433 -90.4239 -75.6903
-20.0872 -90.4103 -75.615
-19.9316 -90.3975 -75.5441
-19.7762 -90.3849 -75.475
-19.6248 -90.3797 -75.4513
-19.4777 -90.3829 -75.4797
-19.3311 -90.387 -75.5135
-19.1857 -90.3937 -75.5633
-19.0401 -90.4 -75.6102
-18.9147 -90.4471 -75.91
-18.7898 -90.4959 -76.22
-18.6439 -90.5029 -76.2712
-18.4976 -90.509 -76.3174
-18.3448 -90.5019 -76.2817
-18.2016 -90.5147 -76.3696
-18.0552 -90.5212 -76.4176
-17.9076 -90.525 -76.4499
-17.7637 -90.5371 -76.5329
-17.6192 -90.5482 -76.6095
-17.471 -90.5511 -76.6359
-17.33 -90.5704 -76.7635
-17.1894 -90.5908 -76.8976
-17.0396 -90.5908 -76.9054
-16.891 -90.5937 -76.9314
-16.7472 -90.6077 -77.0263
-16.6025 -90.62 -77.1103
-16.3376 -90.7035 -77.6433
-16.1859 -90.7003 -77.6314
-16.0469 -90.7281 -77.8113
-15.9043 -90.7474 -77.9386
-15.7501 -90.7384 -77.8913
-15.6031 -90.7475 -77.9555
-15.4603 -90.7675 -78.0871
-15.3119 -90.7735 -78.1322
-15.1598 -90.7699 -78.1175
-15.0172 -90.7915 -78.2592
-41.2715 -91.356 -79.1305
-41.0056 -91.2535 -78.5156
-40.7586 -91.1672 -77.9997
-40.5401 -91.1058 -77.6352
-40.3268 -91.0486 -77.2971
-40.1159 -90.9932 -76.9692
-39.9129 -90.9444 -76.6824
-39.7224 -90.9066 -76.4624
-39.5404 -90.8765 -76.2891
-39.3625 -90.8498 -76.1368
-39.1868 -90.8248 -75.9955
-39.014 -90.8025 -75.8696
-38.8524 -90.7903 -75.8065
-38.6844 -90.7721 -75.7058
-38.5574 -90.7921 -75.8394
-38.3879 -90.7724 -75.7298
-38.2194 -90.7534 -75.6245
-38.052 -90.7354 -75.5251
-37.8936 -90.7257 -75.4769
-37.765 -90.7446 -75.6031
-37.6219 -90.7496 -75.6444
-37.4585 -90.7351 -75.5668
-37.2959 -90.7213 -75.493
-37.1745 -90.7475 -75.6638
-37.0318 -90.7531 -75.7089
-36.876 -90.7458 -75.6754
-36.7293 -90.7476 -75.6968
-36.5868 -90.7535 -75.7434
-36.4409 -90.7559 -75.7693
-36.2941 -90.7576 -75.7903
-36.1397 -90.7517 -75.765
-36.0111 -90.7718 -75.8983
-35.8425 -90.7516 -75.7853
-35.6828 -90.7402 -75.7264
-35.5317 -90.7376 -75.7206
-35.3796 -90.7339 -75.7087
-35.2322 -90.7351 -75.7263
-35.0891 -90.7406 -75.7708
-34.9411 -90.7412 -75.7847
-34.7851 -90.7334 -75.7477
-34.6413 -90.7383 -75.7879
-34.483 -90.7281 -75.7359
-34.323 -90.716 -75.6721
-34.1966 -90.7394 -75.8258
-34.0519 -90.7435 -75.8619
-33.9089 -90.7495 -75.909
-33.7542 -90.743 -75.8793
-33.5997 -90.7367 -75.8511
-33.4477 -90.733 -75.8389
-33.3046 -90.7391 -75.886
-33.1538 -90.7368 -75.8823
-32.9915 -90.7217 -75.8002
-32.8429 -90.7217 -75.8106
-32.6987 -90.7267 -75.8509
-32.5455 -90.7215 -75.8294
-32.3863 -90.7096 -75.7667
-32.242 -90.7144 -75.8066
-32.0953 -90.7167 -75.8307
-31.9504 -90.7209 -75.8665
-31.8016 -90.7208 -75.8757
-31.6516 -90.7193 -75.8767
-31.4972 -90.7127 -75.8465
-31.3357 -90.6978 -75.7649
-31.1872 -90.6979 -75.7754
-31.0392 -90.6986 -75.7897
-30.8809 -90.6872 -75.7299
-30.7371 -90.6929 -75.7751
-30.5982 -90.7045 -75.8561
-30.4485 -90.7033 -75.8586
-30.2954 -90.698 -75.8359
-30.1428 -90.6933 -75.8169
-29.9917 -90.6904 -75.8088
-29.842 -90.6892 -75.8114
-29.6928 -90.6885 -75.8168
-29.5435 -90.6877 -75.8219
-29.3923 -90.6846 -75.8126
-29.2434 -90.6844 -75.8214
-29.0914 -90.6802 -75.8051
-28.9383 -90.6747 -75.7813
-28.7923 -90.6781 -75.8118
-28.6511 -90.6878 -75.8807
-28.4974 -90.6813 -75.8508
-28.3497 -90.6828 -75.8693
-28.2002 -90.6817 -75.8725
-28.0438 -90.6719 -75.8215
-27.8793 -90.6511 -75.7037
-27.7624 -90.6931 -75.9709
-27.6021 -90.6779 -75.8872
-27.4359 -90.6545 -75.7533
-27.2815 -90.6469 -75.7159
-27.123 -90.6335 -75.6433
-26.9753 -90.6349 -75.661
-26.8241 -90.6314 -75.6488
-26.673 -90.628 -75.6377
-26.5311 -90.6373 -75.704
-26.393 -90.6522 -75.805
-26.2397 -90.6458 -75.7748
-26.0873 -90.6406 -75.7524
-25.9387 -90.6408 -75.763
-25.7946 -90.6475 -75.8135
-25.649 -90.6522 -75.8515
-25.4939 -90.6431 -75.8045
-25.3359 -90.6296 -75.7313
-25.1854 -90.627 -75.7244
-25.0406 -90.6329 -75.7695
-24.893 -90.6347 -75.7899
-24.7429 -90.6327 -75.7866
-24.591 -90.628 -75.7673
-24.4366 -90.6195 -75.7242
-24.2782 -90.6048 -75.6426
-24.1368 -90.616 -75.7208
-23.9967 -90.6296 -75.813
-23.8594 -90.6475 -75.9323
-23.711 -90.6484 -75.9467
-23.5666 -90.6555 -75.9997
-23.4304 -90.676 -76.1343
-23.2824 -90.6777 -76.154
-23.1305 -90.6732 -76.135
-22.9779 -90.6675 -76.1092
-22.8194 -90.6521 -76.023
-22.6849 -90.6761 -76.1799
-22.5332 -90.6719 -76.1623
-22.3725 -90.6525 -76.0521
-22.2153 -90.6389 -75.9772
-22.0593 -90.6269 -75.9121
-21.9228 -90.6483 -76.0528
-21.789 -90.6746 -76.223
-21.6308 -90.659 -76.1361
-21.4724 -90.6427 -76.0445
-21.3194 -90.6358 -76.0108
-21.1753 -90.6447 -76.0738
-21.0205 -90.6345 -76.0199
-20.8634 -90.62 -75.9398
-20.7105 -90.6131 -75.9056
-20.5574 -90.6055 -75.8677
-20.4022 -90.5939 -75.8049
-20.2457 -90.5799 -75.7271
-20.0898 -90.5668 -75.6548
-19.9342 -90.554 -75.5848
-19.7775 -90.5389 -75.5001
-19.6253 -90.5323 -75.4682
-19.4871 -90.5527 -75.6022
-19.3389 -90.5541 -75.6188
-19.1919 -90.5577 -75.6493
-19.0479 -90.5673 -75.7169
-18.7945 -90.6576 -76.2891
-18.6375 -90.6419 -76.2012
-18.4866 -90.6386 -76.1889
-18.3462 -90.6572 -76.312
-18.1994 -90.6626 -76.3535
-18.0522 -90.6672 -76.3898
-17.9075 -90.6774 -76.4607
-17.7645 -90.6914 -76.5551
-17.6213 -90.7054 -76.6498
-17.4775 -90.7183 -76.7375
-17.3346 -90.7336 -76.8393
-17.1864 -90.737 -76.8685
-17.0424 -90.7503 -76.9583
-16.8952 -90.7564 -77.0042
-16.7497 -90.7667 -77.0757
-16.608 -90.786 -77.2026
-16.4728 -90.8213 -77.4279
-16.3295 -90.8378 -77.5374
-16.1808 -90.8415 -77.5688
-16.0423 -90.8705 -77.7552
-15.9056 -90.9047 -77.9738
-15.7526 -90.8987 -77.9449
-15.6059 -90.9085 -78.0131
-15.463 -90.9285 -78.1441
-15.3153 -90.9365 -78.2016
-15.1498 -90.8982 -77.9732
-15.0115 -90.9308 -78.1821
-41.5529 -91.625 -79.8268
-41.2983 -91.533 -79.2784
-41.0198 -91.419 -78.5962
-40.7783 -91.3373 -78.1099
-40.5605 -91.2764 -77.7504
-40.3431 -91.2152 -77.3895
-40.129 -91.1567 -77.0444
-39.9221 -91.1042 -76.7361
-39.7273 -91.0625 -76.493
-39.5469 -91.0336 -76.3283
-39.371 -91.0087 -76.1877
-39.1962 -90.9845 -76.0515
-39.0323 -90.9704 -75.9767
-38.857 -90.9454 -75.8355
-38.681 -90.9197 -75.6899
-38.5534 -90.9393 -75.82
-38.3841 -90.9196 -75.7111
-38.2293 -90.9135 -75.685
-38.0953 -90.9273 -75.7796
-37.9331 -90.9141 -75.7105
-37.7608 -90.8912 -75.5816
-37.6116 -90.8904 -75.5876
-37.4448 -90.8725 -75.4895
-37.3198 -90.8952 -75.6381
-37.1802 -90.9038 -75.7011
-37.0198 -90.8921 -75.6408
-36.8719 -90.8926 -75.6543
-36.7222 -90.8913 -75.6574
-36.5751 -90.8927 -75.6763
-36.4304 -90.8963 -75.7093
-36.2861 -90.9006 -75.7456
-36.146 -90.909 -75.8078
-36.009 -90.9206 -75.8893
-35.8366 -90.8965 -75.7527
-35.6796 -90.8879 -75.7107
-35.5286 -90.8852 -75.7052
-35.385 -90.8903 -75.7465
-35.2381 -90.892 -75.7672
-35.0888 -90.8911 -75.7727
-34.9405 -90.8914 -75.7848
-34.7877 -90.887 -75.7683
-34.6391 -90.8869 -75.778
-34.4854 -90.8815 -75.7558
-34.3386 -90.8833 -75.7772
-34.2064 -90.9008 -75.894
-34.0525 -90.8951 -75.8699
-33.906 -90.8974 -75.8942
-33.7538 -90.8936 -75.8812
-33.5995 -90.8875 -75.8542
-33.4459 -90.882 -75.831
-33.3005 -90.8856 -75.8628
-33.1609 -90.8955 -75.934
-33.0008 -90.883 -75.8676
-32.8394 -90.8688 -75.7913
-32.7078 -90.8877 -75.9169
-32.551 -90.8786 -75.8716
-32.408 -90.885 -75.9208
-32.255 -90.8802 -75.9015
-32.0915 -90.8634 -75.809
-31.9538 -90.8759 -75.8951
-31.8034 -90.874 -75.8935
-31.651 -90.8697 -75.8775
-31.4956 -90.8619 -75.8399
-31.3391 -90.8527 -75.794
-31.1871 -90.8487 -75.7795
-31.0331 -90.8425 -75.7514
-30.8705 -90.8259 -75.6599
-30.7365 -90.8432 -75.7758
-30.6036 -90.8621 -75.9011
-30.4533 -90.8602 -75.899
-30.2979 -90.8522 -75.8603
-30.1435 -90.8452 -75.8275
-29.9923 -90.8422 -75.8186
-29.8424 -90.8406 -75.819
-29.6935 -90.8405 -75.828
-29.5436 -90.839 -75.8282
-29.3936 -90.8373 -75.828
-29.2462 -90.8391 -75.8485
-29.0961 -90.8373 -75.8471
-28.9439 -90.8328 -75.8298
-28.7975 -90.8359 -75.8582
-28.6462 -90.8327 -75.848
-28.495 -90.8294 -75.8376
-28.3444 -90.827 -75.8328
-28.196 -90.8275 -75.8455
-28.0447 -90.8242 -75.8346
-27.8913 -90.818 -75.8065
-27.752 -90.8305 -75.8922
-27.5978 -90.8233 -75.8577
-27.4359 -90.8057 -75.7596
-27.2803 -90.7963 -75.7118
-27.1229 -90.7845 -75.649
-26.9803 -90.7928 -75.7093
-26.8287 -90.7889 -75.6943
-26.677 -90.7847 -75.6782
-26.538 -90.7982 -75.7701
-26.3955 -90.807 -75.8332
-26.2441 -90.8032 -75.8193
-26.0891 -90.7944 -75.7748
-25.9384 -90.7917 -75.7675
-25.7941 -90.7982 -75.8164
-25.65 -90.8049 -75.867
-25.4969 -90.7988 -75.8385
-25.3373 -90.7829 -75.7509
-25.1882 -90.7825 -75.7573
-25.0436 -90.7886 -75.8041
-24.8954 -90.7896 -75.8189
-24.7425 -90.7834 -75.7905
-24.5897 -90.7774 -75.7628
-24.4423 -90.7795 -75.7845
-24.2845 -90.7658 -75.7096
-24.1396 -90.7717 -75.7551
-23.9997 -90.7856 -75.8487
-23.8628 -90.8043 -75.9727
-23.7081 -90.7954 -75.9269
-23.5604 -90.7973 -75.9475
-23.4318 -90.8299 -76.1557
-23.285 -90.8336 -76.1875
-23.132 -90.8274 -76.1586
-22.9805 -90.8235 -76.1435
-22.8204 -90.8054 -76.0414
-22.6914 -90.8386 -76.2536
-22.5338 -90.8246 -76.1768
-22.3758 -90.8098 -76.0949
-22.217 -90.7933 -76.0027
-22.0598 -90.7793 -75.9259
-21.9291 -90.8108 -76.1271
-21.7933 -90.8339 -76.2776
-21.6303 -90.81 -76.14
-21.4722 -90.7943 -76.0522
-21.3191 -90.7872 -76.0174
-21.1713 -90.7894 -76.0399
-21.0185 -90.7828 -76.0079
-20.8627 -90.7707 -75.9421
-20.7123 -90.768 -75.9344
-20.5609 -90.7637 -75.9166
-20.406 -90.7529 -75.859
-20.2497 -90.7391 -75.7827
-20.0942 -90.7268 -75.716
-19.9393 -90.7152 -75.6537
-19.7817 -90.6985 -75.5598
-19.6307 -90.6943 -75.5426
-19.4937 -90.7173 -75.6917
-19.3467 -90.7211 -75.7231
-19.1985 -90.7225 -75.74
-18.9328 -90.7876 -76.1557
-18.7853 -90.7911 -76.1855
-18.6274 -90.7734 -76.0852
-18.4847 -90.7869 -76.176
-18.3502 -90.8179 -76.3743
-18.197 -90.81 -76.3341
-18.0571 -90.8301 -76.4656
-17.9123 -90.8402 -76.5358
-17.7672 -90.8501 -76.6043
-17.6229 -90.8616 -76.6832
-17.4795 -90.8755 -76.7768
-17.3392 -90.8966 -76.9139
-17.2006 -90.9221 -77.0785
-17.0491 -90.9186 -77.0653
-16.9 -90.9205 -77.0846
-16.7518 -90.9247 -77.1186
-16.6097 -90.9433 -77.2405
-16.4696 -90.9671 -77.3946
-16.327 -90.9854 -77.5146
-16.1848 -91.0049 -77.6422
-16.0454 -91.0319 -77.8158
-15.9041 -91.055 -77.9652
-15.7525 -91.0524 -77.9573
-15.6046 -91.0595 -78.0086
-15.461 -91.0775 -78.1268
-15.3161 -91.0929 -78.2292
-15.1486 -91.049 -77.968
-15.0112 -91.0844 -78.1932
-41.6017 -91.8221 -80.0928
-41.3411 -91.7246 -79.5133
-41.0617 -91.6095 -78.8271
-40.8103 -91.5186 -78.2878
-40.5854 -91.451 -77.8897
-40.3637 -91.3859 -77.5061
-40.1471 -91.3249 -77.1473
-39.9353 -91.2678 -76.8127
-39.7324 -91.2185 -76.5249
-39.5548 -91.1921 -76.376
-39.3824 -91.1703 -76.2548
-39.2104 -91.1487 -76.1348
-39.0482 -91.1362 -76.0698
-38.8774 -91.1154 -75.9547
-38.7014 -91.0897 -75.8096
-38.5564 -91.0929 -75.8403
-38.3894 -91.0755 -75.7453
-38.2402 -91.0747 -75.7516
-38.0867 -91.0699 -75.7334
-37.9373 -91.069 -75.7387
-37.7556 -91.037 -75.5551
-37.5964 -91.0264 -75.5016
-37.4558 -91.034 -75.5582
-37.3387 -91.0645 -75.7541
-37.1683 -91.0429 -75.6339
-37.0147 -91.0378 -75.6136
-36.8672 -91.0387 -75.6296
-36.7158 -91.0357 -75.6222
-36.5634 -91.0318 -75.6089
-36.4228 -91.0396 -75.6671
-36.2836 -91.0489 -75.7339
-36.1463 -91.0602 -75.8133
-36.0035 -91.066 -75.8589
-35.8236 -91.0341 -75.6759
-35.6697 -91.0285 -75.6528
-35.5246 -91.032 -75.6844
-35.3848 -91.041 -75.7493
-35.2415 -91.0464 -75.7927
-35.0911 -91.0445 -75.7913
-34.938 -91.0397 -75.7731
-34.7847 -91.0348 -75.7532
-34.639 -91.0378 -75.7818
-34.4882 -91.0354 -75.7778
-34.3481 -91.0444 -75.843
-34.2121 -91.0579 -75.9351
-34.0564 -91.0503 -75.8995
-33.9023 -91.0444 -75.8741
-33.7505 -91.0411 -75.864
-33.6014 -91.0406 -75.871
-33.4491 -91.0366 -75.857
-33.3147 -91.0522 -75.9623
-33.177 -91.0645 -76.0471
-33.02 -91.0553 -76.0017
-32.8433 -91.0241 -75.8224
-32.6991 -91.029 -75.8622
-32.5399 -91.0172 -75.8006
-32.3977 -91.0245 -75.8546
-32.256 -91.0325 -75.9133
-32.0867 -91.0089 -75.7802
-31.9488 -91.0211 -75.8646
-31.8005 -91.0216 -75.8774
-31.6523 -91.0223 -75.8916
-31.5005 -91.0186 -75.8791
-31.3439 -91.0093 -75.833
-31.1887 -91.0016 -75.7959
-31.0325 -90.9927 -75.7518
-30.869 -90.975 -75.654
-30.7473 -91.0071 -75.8591
-30.6068 -91.017 -75.9292
-30.4597 -91.0191 -75.9518
-30.301 -91.007 -75.8878
-30.144 -90.9969 -75.8362
-29.9921 -90.9931 -75.8227
-29.8443 -90.9941 -75.8391
-29.6968 -90.9956 -75.8578
-29.5427 -90.989 -75.8271
-29.4006 -90.9972 -75.8871
-29.2454 -90.9892 -75.8476
-29.0983 -90.9912 -75.8697
-28.9433 -90.9833 -75.831
-28.8015 -90.9922 -75.8948
-28.6483 -90.9864 -75.8694
-28.4938 -90.979 -75.8342
-28.341 -90.9737 -75.8115
-28.1924 -90.974 -75.8224
-28.0466 -90.9778 -75.8552
-27.8993 -90.9798 -75.8769
-27.7477 -90.976 -75.8636
-27.5907 -90.965 -75.806
-27.4347 -90.9552 -75.7557
-27.2811 -90.9487 -75.7252
-27.132 -90.948 -75.7309
-26.9922 -90.9603 -75.8149
-26.8391 -90.9543 -75.7879
-26.689 -90.9525 -75.7858
-26.5472 -90.9623 -75.855
-26.4001 -90.9646 -75.8785
-26.2466 -90.958 -75.8478
-26.0906 -90.9478 -75.7945
-25.9383 -90.9427 -75.773
-25.7933 -90.9482 -75.8154
-25.648 -90.9534 -75.8564
-25.4991 -90.9533 -75.865
-25.3438 -90.9438 -75.8161
-25.1922 -90.9397 -75.8003
-25.0448 -90.9418 -75.8222
-24.8955 -90.9411 -75.8273
-24.7349 -90.9233 -75.728
-24.5811 -90.9156 -75.6902
-24.4369 -90.9227 -75.7423
-24.2915 -90.9279 -75.7831
-24.147 -90.9346 -75.833
-24.0026 -90.9416 -75.8846
-23.8562 -90.9454 -75.9168
-23.7049 -90.9418 -75.9038
-23.56 -90.9482 -75.9514
-23.4275 -90.9747 -76.1219
-23.2831 -90.9822 -76.1764
-23.134 -90.9824 -76.1864
-22.9811 -90.9762 -76.1577
-22.82 -90.9565 -76.0461
-22.687 -90.9832 -76.2177
-22.5356 -90.9795 -76.2039
-22.3787 -90.9664 -76.1332
-22.2194 -90.9491 -76.0364
-22.0665 -90.9425 -76.0045
-21.9329 -90.9692 -76.1761
-21.7844 -90.9703 -76.1917
-21.6259 -90.9542 -76.102
-21.4804 -90.9605 -76.149
-21.3127 -90.9275 -75.9567
-21.1664 -90.9325 -75.9955
-21.0189 -90.9352 -76.0208
-20.8648 -90.9262 -75.9745
-20.7156 -90.9259 -75.9812
-20.5647 -90.9225 -75.969
-20.4108 -90.9135 -75.9223
-20.2549 -90.9007 -75.8529
-20.0998 -90.8891 -75.7907
-19.9448 -90.8776 -75.729
-19.7879 -90.862 -75.6424
-19.6318 -90.8481 -75.5658
-19.4883 -90.8584 -75.6372
-19.3496 -90.8785 -75.7678
-19.2008 -90.879 -75.7793
-19.0565 -90.8883 -75.8445
-18.9247 -90.9233 -76.0661
-18.776 -90.9242 -76.08
-18.6284 -90.9276 -76.109
-18.4875 -90.945 -76.223
-18.3502 -90.9703 -76.3859
-18.2031 -90.9753 -76.4242
-18.0589 -90.9866 -76.5014
-17.9125 -90.9934 -76.5511
-17.7663 -91.0006 -76.6035
-17.6211 -91.0105 -76.6718
-17.4764 -91.0216 -76.7474
-17.3345 -91.0391 -76.8624
-17.2033 -91.0813 -77.1279
-17.0563 -91.0882 -77.1784
-16.9057 -91.0869 -77.1785
-16.7565 -91.0889 -77.1989
-16.6123 -91.1028 -77.2918
-16.4681 -91.1169 -77.3857
-16.3246 -91.1332 -77.4929
-16.1959 -91.1859 -77.8225
-16.0495 -91.196 -77.892
-15.8958 -91.1882 -77.8528
-15.7448 -91.1871 -77.854
-15.5987 -91.1986 -77.932
-15.4664 -91.2457 -78.2271
-15.3184 -91.2533 -78.2812
-15.1512 -91.2102 -78.0264
-41.3752 -91.9087 -79.7009
-41.1047 -91.8012 -79.0637
-40.8407 -91.6988 -78.4569
-40.608 -91.624 -78.0168
-40.3871 -91.5593 -77.6378
-40.1687 -91.4965 -77.2702
-39.9549 -91.4374 -76.9247
-39.7534 -91.3892 -76.6447
-39.5682 -91.3558 -76.4538
-39.3928 -91.3312 -76.3164
-39.2205 -91.3093 -76.195
-39.0517 -91.2905 -76.0928
-38.8895 -91.2778 -76.0269
-38.7217 -91.2597 -75.9286
-38.5559 -91.2433 -75.8407
-38.3949 -91.2315 -75.7802
-38.2644 -91.2487 -75.8947
-38.1009 -91.2344 -75.8189
-37.9355 -91.2181 -75.7316
-37.7555 -91.1876 -75.5578
-37.5938 -91.1746 -75.49
-37.4526 -91.1815 -75.5429
-37.3361 -91.2127 -75.7418
-37.1581 -91.1836 -75.5769
-37.0091 -91.183 -75.5837
-36.8694 -91.1916 -75.6465
-36.7267 -91.1974 -75.6919
-36.5658 -91.1849 -75.6268
-36.4231 -91.1906 -75.6723
-36.2822 -91.1982 -75.7289
-36.143 -91.2078 -75.7968
-35.9979 -91.2113 -75.8286
-35.8223 -91.1836 -75.672
-35.6728 -91.1825 -75.676
-35.5297 -91.188 -75.7196
-35.3829 -91.1898 -75.741
-35.2401 -91.1958 -75.7874
-35.0922 -91.1965 -75.8024
-34.9391 -91.1918 -75.784
-34.7884 -91.1895 -75.7805
-34.6432 -91.1931 -75.8125
-34.492 -91.1903 -75.806
-34.3395 -91.1861 -75.7912
-34.1935 -91.1889 -75.8183
-34.0558 -91.2007 -75.9
-33.9075 -91.2011 -75.9124
-33.7511 -91.1927 -75.8717
-33.601 -91.1911 -75.8728
-33.456 -91.1952 -75.9075
-33.3168 -91.2057 -75.981
-33.1667 -91.2042 -75.9822
-33.0111 -91.1965 -75.9459
-32.8483 -91.1807 -75.8604
-32.6917 -91.1717 -75.8163
-32.5348 -91.1624 -75.7701
-32.3919 -91.1689 -75.8193
-32.2584 -91.1863 -75.9346
-32.0895 -91.1631 -75.8042
-31.9482 -91.1715 -75.8653
-31.8006 -91.1729 -75.8834
-31.6536 -91.1748 -75.905
-31.5068 -91.1771 -75.9291
-31.3545 -91.1729 -75.9135
-31.1984 -91.1642 -75.8707
-31.035 -91.1467 -75.7748
-30.8862 -91.1466 -75.7838
-30.7478 -91.1589 -75.8685
-30.6032 -91.1639 -75.9085
-30.4556 -91.1653 -75.9267
-30.299 -91.1557 -75.8781
-30.1424 -91.1461 -75.8298
-29.9889 -91.1401 -75.8037
-29.8405 -91.1406 -75.8159
-29.6918 -91.1406 -75.8257
-29.5425 -91.1398 -75.8308
-29.4001 -91.1478 -75.8888
-29.2498 -91.1459 -75.8867
-29.1001 -91.1447 -75.8893
-28.9369 -91.1262 -75.7868
-28.7971 -91.1377 -75.8662
-28.6481 -91.1375 -75.8743
-28.4911 -91.1267 -75.8188
-28.3316 -91.1125 -75.7424
-28.1935 -91.1266 -75.8372
-28.0488 -91.132 -75.8792
-27.8993 -91.1311 -75.8833
-27.746 -91.1251 -75.8561
-27.5933 -91.1198 -75.8336
-27.4382 -91.1111 -75.7904
-27.3014 -91.1275 -75.8991
-27.1454 -91.1177 -75.8489
-26.9948 -91.1152 -75.8435
-26.8463 -91.1156 -75.8553
-26.6966 -91.1143 -75.8567
-26.5508 -91.1186 -75.892
-26.4026 -91.1195 -75.9065
-26.2501 -91.1144 -75.8849
-26.0937 -91.1036 -75.8285
-25.9404 -91.0971 -75.7985
-25.7913 -91.0966 -75.8048
-25.6424 -91.0965 -75.8135
-25.4988 -91.1042 -75.8691
-25.3511 -91.1059 -75.8883
-25.1975 -91.0988 -75.8547
-25.0414 -91.0881 -75.7988
-24.894 -91.0902 -75.8204
-24.7419 -91.0852 -75.7995
-24.5831 -91.0699 -75.7159
-24.4403 -91.0792 -75.7807
-24.2963 -91.0867 -75.8356
-24.1507 -91.0918 -75.8751
-24.0029 -91.0936 -75.8951
-23.8527 -91.0915 -75.8912
-23.7027 -91.0898 -75.8901
-23.5607 -91.1009 -75.9662
-23.4249 -91.1222 -76.1041
-23.2776 -91.125 -76.1303
-23.1339 -91.1339 -76.1928
-22.9836 -91.1321 -76.1907
-22.823 -91.1131 -76.0844
-22.6797 -91.1227 -76.1513
-22.5374 -91.1343 -76.2305
-22.3836 -91.1266 -76.1923
-22.2226 -91.1064 -76.0784
-22.0706 -91.1013 -76.0562
-21.9285 -91.1135 -76.1391
-21.7753 -91.1063 -76.1043
-21.6272 -91.1082 -76.1242
-21.473 -91.0993 -76.0786
-21.3146 -91.0827 -75.9869
-21.1701 -91.091 -76.0453
-21.0189 -91.0872 -76.0307
-20.8684 -91.0847 -76.0242
-20.7177 -91.0817 -76.0144
-20.5659 -91.0765 -75.9919
-20.413 -91.0694 -75.9571
-20.2589 -91.06 -75.9085
-20.1037 -91.0482 -75.8453
-19.9481 -91.0356 -75.7769
-19.7935 -91.0246 -75.7185
-19.6393 -91.0145 -75.6653
-19.4878 -91.0092 -75.6415
-19.3415 -91.0144 -75.6816
-19.1961 -91.0213 -75.7319
-19.0582 -91.0438 -75.8764
-18.9248 -91.0755 -76.0777
-18.7731 -91.0706 -76.0558
-18.6282 -91.0794 -76.1178
-18.488 -91.0983 -76.2405
-18.3491 -91.1204 -76.3829
-18.205 -91.1317 -76.46
-18.0581 -91.1374 -76.5025
-17.9107 -91.1421 -76.539
-17.7641 -91.1484 -76.5859
-17.6182 -91.1568 -76.6447
-17.4778 -91.1773 -76.7776
-17.3448 -91.2152 -77.0157
-17.2047 -91.2376 -77.1598
-17.0609 -91.2519 -77.255
-16.9123 -91.2556 -77.2851
-16.7605 -91.2516 -77.2691
-16.6138 -91.2596 -77.3257
-16.4673 -91.2684 -77.3872
-16.1987 -91.3466 -77.8781
-16.0479 -91.3461 -77.8829
-15.894 -91.3376 -77.839
-15.7444 -91.3402 -77.8626
-15.6074 -91.3748 -78.0811
-15.4699 -91.409 -78.2968
-15.3125 -91.3921 -78.2018
-15.1625 -91.3943 -78.2232
-41.1232 -91.9712 -79.1676
-40.8781 -91.8856 -78.6644
-40.6389 -91.8046 -78.1891
-40.4121 -91.7344 -77.7786
-40.1878 -91.6659 -77.3784
-39.9755 -91.6081 -77.0417
-39.7732 -91.5591 -76.7584
-39.5808 -91.5189 -76.5276
-39.3977 -91.487 -76.3472
-39.2238 -91.4635 -76.2168
-39.0444 -91.4347 -76.0547
-38.8807 -91.4205 -75.9802
-38.7263 -91.415 -75.958
-38.5726 -91.4102 -75.9399
-38.4095 -91.3963 -75.8675
-38.2429 -91.3789 -75.7737
-38.0766 -91.3618 -75.6814
-37.9357 -91.3691 -75.7359
-37.7701 -91.3525 -75.6466
-37.5991 -91.3304 -75.5244
-37.4791 -91.3582 -75.7024
-37.3325 -91.36 -75.7241
-37.1536 -91.3299 -75.5537
-37.002 -91.3267 -75.5448
-36.864 -91.3371 -75.618
-36.7334 -91.3549 -75.736
-36.5789 -91.3489 -75.7102
-36.4225 -91.3409 -75.6725
-36.2795 -91.3464 -75.7164
-36.1368 -91.3523 -75.7623
-35.9848 -91.3488 -75.7517
-35.8142 -91.3261 -75.6255
-35.6594 -91.3195 -75.5965
-35.5351 -91.3445 -75.7574
-35.3897 -91.3478 -75.7875
-35.2359 -91.3424 -75.7653
-35.0821 -91.3368 -75.7421
-34.9312 -91.3344 -75.7378
-34.8008 -91.3536 -75.8637
-34.65 -91.3513 -75.8601
-34.487 -91.3359 -75.7778
-34.3316 -91.3286 -75.7445
-34.2037 -91.3509 -75.889
-34.063 -91.3595 -75.951
-33.9131 -91.3583 -75.9538
-33.7514 -91.344 -75.878
-33.6018 -91.343 -75.8824
-33.4526 -91.3425 -75.889
-33.3067 -91.3456 -75.9179
-33.1633 -91.3515 -75.9638
-33.0096 -91.3459 -75.9402
-32.8484 -91.3319 -75.8658
-32.6897 -91.3205 -75.8072
-32.5289 -91.3066 -75.7337
-32.3908 -91.3186 -75.816
-32.269 -91.3496 -76.0125
-32.1068 -91.3341 -75.9293
-31.9551 -91.3306 -75.9185
-31.805 -91.329 -75.9186
-31.6563 -91.3291 -75.9294
-31.5075 -91.3291 -75.939
-31.3578 -91.328 -75.9421
-31.1976 -91.3143 -75.8695
-31.0402 -91.304 -75.8171
-30.9009 -91.3153 -75.8951
-30.7542 -91.3177 -75.9199
-30.6034 -91.3153 -75.9147
-30.448 -91.3071 -75.8755
-30.2945 -91.3013 -75.8504
-30.1423 -91.297 -75.8339
-29.9861 -91.2878 -75.7883
-29.8336 -91.283 -75.769
-29.6949 -91.2955 -75.8542
-29.5628 -91.3166 -75.9908
-29.4121 -91.3142 -75.9858
-29.2588 -91.3085 -75.9613
-29.1005 -91.2964 -75.8979
-28.9416 -91.2834 -75.8289
-28.7955 -91.2869 -75.8596
-28.6482 -91.2888 -75.8806
-28.4909 -91.2776 -75.8227
-28.3272 -91.2579 -75.7136
-28.1983 -91.2841 -75.8808
-28.0556 -91.2922 -75.9394
-27.8974 -91.2797 -75.8731
-27.7502 -91.2819 -75.8962
-27.6028 -91.2838 -75.9167
-27.452 -91.2812 -75.9107
-27.3149 -91.2972 -76.0167
-27.1502 -91.2755 -75.8951
-26.9943 -91.2658 -75.8454
-26.8497 -91.2716 -75.8902
-26.7016 -91.2726 -75.9054
-26.5549 -91.2757 -75.9335
-26.4078 -91.2782 -75.9575
-26.2549 -91.2726 -75.9327
-26.0985 -91.2618 -75.8767
-25.9433 -91.2525 -75.8302
-25.7889 -91.2445 -75.7908
-25.6359 -91.2383 -75.7627
-25.4948 -91.2497 -75.8405
-25.3495 -91.255 -75.8814
-25.1986 -91.2519 -75.872
-25.0483 -91.2498 -75.8681
-24.901 -91.2522 -75.8916
-24.7598 -91.2639 -75.9716
-24.5935 -91.2373 -75.8202
-24.4428 -91.2345 -75.8118
-24.299 -91.2423 -75.8681
-24.1531 -91.2471 -75.9057
-24.0026 -91.2445 -75.8993
-23.8518 -91.2416 -75.8907
-23.7014 -91.2392 -75.885
-23.5672 -91.2629 -76.0367
-23.4183 -91.2631 -76.047
-23.2712 -91.2664 -76.0755
-23.1336 -91.2851 -76.1977
-22.9919 -91.2977 -76.2821
-22.8312 -91.2784 -76.1748
-22.675 -91.2667 -76.1127
-22.5348 -91.2817 -76.2119
-22.393 -91.2943 -76.297
-22.233 -91.2759 -76.1946
-22.0712 -91.254 -76.0709
-21.9253 -91.2597 -76.1136
-21.7778 -91.2626 -76.1399
-21.6299 -91.2648 -76.1616
-21.479 -91.2617 -76.1518
-21.3276 -91.2578 -76.1367
-21.1796 -91.26 -76.1586
-21.0223 -91.2452 -76.0777
-20.8691 -91.2378 -76.0411
-20.7178 -91.2337 -76.025
-20.5661 -91.2289 -76.0043
-20.4146 -91.2243 -75.9853
-20.262 -91.2177 -75.9536
-20.1062 -91.2049 -75.8845
-19.9509 -91.1928 -75.8195
-19.8002 -91.1896 -75.8085
-19.6492 -91.1855 -75.7924
-19.4988 -91.1828 -75.7842
-19.3487 -91.1805 -75.7789
-19.2042 -91.1896 -75.8417
-19.0659 -91.2113 -75.9812
-18.9258 -91.2298 -76.1015
-18.7742 -91.2249 -76.08
-18.6287 -91.2327 -76.1352
-18.4891 -91.2529 -76.2657
-18.349 -91.2727 -76.3934
-18.2048 -91.2839 -76.4696
-18.0589 -91.2916 -76.5243
-17.9126 -91.2988 -76.5759
-17.7644 -91.3019 -76.6027
-17.6182 -91.3095 -76.6568
-17.4783 -91.3314 -76.797
-17.3474 -91.3742 -77.064
-17.2022 -91.3852 -77.1384
-17.0549 -91.3915 -77.1846
-16.9123 -91.4089 -77.2978
-16.7592 -91.4019 -77.2635
-16.6113 -91.4073 -77.304
-16.3305 -91.4547 -77.607
-16.1869 -91.4713 -77.7152
-16.0453 -91.4936 -77.8578
-15.8943 -91.4924 -77.8585
-15.7441 -91.4933 -77.8716
-15.6057 -91.5247 -78.0694
-15.4584 -91.5336 -78.1311
-15.303 -91.5214 -78.0651
-40.8988 -92.0573 -78.78
-40.6751 -91.9903 -78.3906
-40.4278 -91.9011 -77.8681
-40.2069 -91.8356 -77.4869
-39.9938 -91.7768 -77.1466
-39.7895 -91.7257 -76.8519
-39.5904 -91.6792 -76.5841
-39.3992 -91.6397 -76.3588
-39.2292 -91.6198 -76.2505
-39.0676 -91.6077 -76.1892
-38.9095 -91.5988 -76.1469
-38.7469 -91.5857 -76.0791
-38.5839 -91.5719 -76.0077
-38.4187 -91.5561 -75.9233
-38.2431 -91.53 -75.7782
-38.0768 -91.5128 -75.6859
-37.9185 -91.5032 -75.6393
-37.7593 -91.4926 -75.5865
-37.6034 -91.4853 -75.553
-37.4798 -91.5097 -75.7099
-37.3362 -91.5145 -75.7496
-37.1606 -91.4876 -75.5989
-36.9967 -91.4722 -75.5171
-36.851 -91.4748 -75.5436
-36.7262 -91.4986 -75.6962
-36.5657 -91.4864 -75.6336
-36.4165 -91.4856 -75.6396
-36.2775 -91.4953 -75.708
-36.1277 -91.4939 -75.7102
-35.9718 -91.4863 -75.6755
-35.8137 -91.4763 -75.6259
-35.6641 -91.4751 -75.6291
-35.5226 -91.4825 -75.6835
-35.3905 -91.4996 -75.7964
-35.2367 -91.4941 -75.7743
-34.9284 -91.4823 -75.7239
-34.8048 -91.5088 -75.8933
-34.6484 -91.5006 -75.854
-34.4828 -91.4823 -75.7551
-34.3236 -91.4709 -75.6967
-34.1954 -91.4929 -75.8391
-34.0656 -91.5134 -75.972
-33.9117 -91.5078 -75.9484
-33.7491 -91.4926 -75.8675
-33.6016 -91.4938 -75.8852
-33.459 -91.5006 -75.9359
-33.3131 -91.5037 -75.9649
-33.1665 -91.5061 -75.9894
-33.0126 -91.5004 -75.9649
-32.8518 -91.4867 -75.8932
-32.6898 -91.4716 -75.8123
-32.5279 -91.4565 -75.732
-32.4074 -91.4888 -75.9355
-32.2817 -91.5154 -76.1051
-32.1238 -91.5049 -76.0521
-31.9682 -91.497 -76.0146
-31.8154 -91.4923 -75.9964
-31.6663 -91.492 -76.0043
-31.5179 -91.4925 -76.0173
-31.3507 -91.4707 -75.8964
-31.1931 -91.4601 -75.8428
-31.0285 -91.4409 -75.7375
-30.8939 -91.4579 -75.8493
-30.7585 -91.4741 -75.9563
-30.6054 -91.4688 -75.9341
-30.4481 -91.4584 -75.8817
-30.2999 -91.4591 -75.8951
-30.1566 -91.4659 -75.9459
-29.9896 -91.4432 -75.8191
-29.8512 -91.4561 -75.9066
-29.7067 -91.4616 -75.9491
-29.5641 -91.4695 -76.006
-29.4202 -91.4757 -76.0531
-29.2646 -91.4673 -76.0118
-29.1024 -91.4501 -75.9184
-28.9482 -91.4431 -75.8861
-28.7995 -91.4432 -75.8959
-28.6485 -91.4404 -75.8885
-28.4934 -91.432 -75.8481
-28.3379 -91.4231 -75.8039
-28.1973 -91.434 -75.8785
-28.0484 -91.4339 -75.8878
-27.8983 -91.4322 -75.8869
-27.7659 -91.4544 -76.0293
-27.6124 -91.4482 -76.0014
-27.4579 -91.4406 -75.9651
-27.306 -91.4365 -75.9499
-27.143 -91.4169 -75.8414
-26.9968 -91.4205 -75.8722
-26.8506 -91.4242 -75.9041
-26.7067 -91.4312 -75.9553
-26.5609 -91.4356 -75.991
-26.4106 -91.4337 -75.9887
-26.2586 -91.4292 -75.9709
-26.1033 -91.4201 -75.9252
-25.9461 -91.4079 -75.8614
-25.7896 -91.3968 -75.8035
-25.6361 -91.3898 -75.7709
-25.4954 -91.4019 -75.8524
-25.3512 -91.4089 -75.9033
-25.203 -91.4098 -75.9182
-25.0633 -91.4239 -76.0116
-24.9108 -91.4185 -75.9883
-24.7582 -91.4129 -75.9636
-24.5993 -91.3976 -75.8805
-24.4468 -91.3921 -75.8565
-24.3012 -91.3972 -75.8959
-24.1552 -91.4017 -75.9323
-24.0035 -91.3975 -75.9159
-23.847 -91.3854 -75.8516
-23.6985 -91.386 -75.8644
-23.5644 -91.4101 -76.018
-23.4138 -91.4076 -76.0115
-23.2662 -91.4099 -76.0344
-23.1243 -91.4216 -76.1138
-22.9829 -91.4344 -76.1994
-22.835 -91.4367 -76.2219
-22.6804 -91.4275 -76.175
-22.5236 -91.4146 -76.1061
-22.3835 -91.43 -76.2078
-22.2364 -91.4336 -76.2382
-22.0772 -91.4163 -76.1424
-21.9259 -91.4126 -76.1289
-21.7812 -91.4204 -76.1844
-21.633 -91.4223 -76.2043
-21.4832 -91.4212 -76.206
-21.3322 -91.418 -76.1955
-21.1793 -91.4113 -76.1635
-21.0232 -91.3988 -76.097
-20.8709 -91.393 -76.0706
-20.7189 -91.3877 -76.047
-20.5681 -91.3844 -76.0359
-20.4187 -91.3841 -76.042
-20.2668 -91.3788 -76.0186
-20.1124 -91.3686 -75.9657
-19.9606 -91.3634 -75.9429
-19.8094 -91.3592 -75.9259
-19.6582 -91.3551 -75.9091
-19.5077 -91.3523 -75.9006
-19.3565 -91.3481 -75.8836
-19.1979 -91.3287 -75.775
-19.0561 -91.3433 -75.8713
-18.9197 -91.3693 -76.0362
-18.7748 -91.3783 -76.0985
-18.629 -91.3855 -76.1498
-18.4875 -91.4019 -76.2569
-18.3495 -91.4262 -76.411
-18.2066 -91.4403 -76.5041
-18.0609 -91.4485 -76.5619
-17.9157 -91.4582 -76.628
-17.7678 -91.462 -76.6592
-17.6177 -91.4611 -76.6616
-17.4841 -91.4974 -76.888
-17.3512 -91.5359 -77.1283
-17.2045 -91.5436 -77.1824
-17.0496 -91.5324 -77.1233
-16.9097 -91.5561 -77.274
-16.7566 -91.5492 -77.24
-16.6091 -91.5554 -77.2852
-16.4613 -91.5611 -77.3275
-16.3155 -91.5717 -77.3991
-16.1769 -91.6005 -77.5807
-16.0406 -91.6356 -77.8002
-15.8946 -91.647 -77.8767
-15.7447 -91.6488 -77.8951
-15.611 -91.6924 -78.1658
-15.4602 -91.6926 -78.1745
-40.7048 -92.1704 -78.5562
-40.4522 -92.076 -78.0056
-40.2346 -92.0133 -77.6431
-40.0192 -91.9523 -77.2904
-39.8124 -91.8988 -76.9828
-39.6091 -91.8482 -76.6921
-39.409 -91.8002 -76.4168
-39.2347 -91.7762 -76.2848
-39.0854 -91.7757 -76.2929
-38.9332 -91.7726 -76.2849
-38.769 -91.7579 -76.2084
-38.6001 -91.7386 -76.104
-38.4324 -91.7203 -76.0056
-38.2578 -91.6951 -75.8663
-38.0902 -91.6767 -75.7671
-37.9251 -91.6604 -75.6809
-37.7706 -91.6545 -75.6564
-37.6339 -91.6661 -75.736
-37.4797 -91.6604 -75.7126
-37.3275 -91.6568 -75.7017
-37.1644 -91.6421 -75.6249
-36.9958 -91.6219 -75.5149
-36.8389 -91.6133 -75.4742
-36.7077 -91.6307 -75.5881
-36.5646 -91.636 -75.6307
-36.4305 -91.6507 -75.7284
-36.2725 -91.641 -75.6811
-36.116 -91.6327 -75.6422
-35.96 -91.6249 -75.6063
-35.8227 -91.6365 -75.6856
-35.6764 -91.6388 -75.7097
-35.5194 -91.6299 -75.6668
-35.3652 -91.6239 -75.6415
-35.2085 -91.6152 -75.6
-34.9369 -91.6422 -75.7815
-34.8077 -91.6629 -75.9157
-34.6421 -91.6448 -75.8175
-34.4789 -91.6291 -75.7341
-34.3221 -91.6201 -75.6908
-34.1808 -91.628 -75.7481
-34.0434 -91.6402 -75.8312
-33.8957 -91.6413 -75.8475
-33.7528 -91.6477 -75.896
-33.6061 -91.6499 -75.9194
-33.4635 -91.6566 -75.9697
-33.3218 -91.6646 -76.0274
-33.1699 -91.6611 -76.0165
-33.013 -91.6519 -75.972
-32.8536 -91.6399 -75.91
-32.6888 -91.6215 -75.8102
-32.5366 -91.6174 -75.7956
-32.4097 -91.6425 -75.9554
-32.2725 -91.6559 -76.0457
-32.1305 -91.664 -76.1036
-31.9695 -91.6497 -76.0282
-31.8121 -91.6396 -75.9782
-31.6621 -91.6382 -75.9792
-31.5133 -91.6382 -75.9892
-31.348 -91.6186 -75.8818
-31.1956 -91.6141 -75.8649
-31.0349 -91.5997 -75.789
-30.9012 -91.6179 -75.907
-30.7566 -91.623 -75.9472
-30.6073 -91.6223 -75.9531
-30.4423 -91.6024 -75.844
-30.3091 -91.6217 -75.9686
-30.1515 -91.6108 -75.9132
-29.997 -91.6035 -75.8797
-29.8693 -91.6302 -76.0484
-29.7149 -91.6232 -76.0162
-29.5579 -91.6128 -75.9636
-29.4202 -91.6271 -76.059
-29.2606 -91.6133 -75.9862
-29.1054 -91.6051 -75.9465
-28.9571 -91.6059 -75.9606
-28.8067 -91.6039 -75.9582
-28.6501 -91.5936 -75.9063
-28.496 -91.5867 -75.8743
-28.345 -91.5837 -75.866
-28.1929 -91.5794 -75.8498
-28.0522 -91.5902 -75.9238
-27.9258 -91.6207 -76.1153
-27.7771 -91.621 -76.1264
-27.6171 -91.6059 -76.0458
-27.4626 -91.5984 -76.0099
-27.3051 -91.5864 -75.9478
-27.1537 -91.5831 -75.9369
-26.9997 -91.5759 -75.9031
-26.8516 -91.5769 -75.9184
-26.706 -91.5816 -75.9557
-26.5576 -91.5823 -75.9691
-26.4079 -91.5813 -75.9721
-26.261 -91.5841 -75.9985
-26.1076 -91.5777 -75.9691
-25.9503 -91.5655 -75.9051
-25.7946 -91.5554 -75.8539
-25.6434 -91.552 -75.8427
-25.5039 -91.566 -75.9352
-25.3569 -91.5688 -75.9612
-25.2088 -91.57 -75.9776
-25.0689 -91.5839 -76.0697
-24.9153 -91.577 -76.037
-24.7583 -91.5645 -75.9717
-24.6034 -91.5554 -75.9261
-24.4512 -91.5504 -75.905
-24.3034 -91.5522 -75.9244
-24.1599 -91.5607 -75.9842
-24.0096 -91.5586 -75.9808
-23.8515 -91.5441 -75.9027
-23.703 -91.5448 -75.9159
-23.558 -91.5513 -75.9632
-23.4101 -91.5531 -75.983
-23.2625 -91.5554 -76.0053
-23.1175 -91.5622 -76.0547
-22.9747 -91.5726 -76.1255
-22.8282 -91.5771 -76.1614
-22.6736 -91.5679 -76.1148
-22.529 -91.5756 -76.1696
-22.391 -91.5948 -76.2934
-22.2372 -91.5869 -76.2545
-22.0798 -91.5727 -76.1782
-21.9278 -91.5678 -76.1574
-21.7821 -91.574 -76.2031
-21.6338 -91.5757 -76.222
-21.4831 -91.573 -76.214
-21.3302 -91.5665 -76.1835
-21.1774 -91.5599 -76.1525
-21.0242 -91.5525 -76.117
-20.8727 -91.5482 -76.0993
-20.7194 -91.5404 -76.0614
-20.5711 -91.542 -76.0793
-20.4225 -91.5432 -76.0946
-20.2693 -91.5355 -76.0567
-20.1212 -91.5375 -76.0774
-19.9754 -91.5442 -76.1256
-19.8171 -91.5263 -76.0264
-19.6632 -91.5169 -75.9784
-19.5118 -91.5125 -75.9604
-19.3586 -91.5042 -75.919
-19.1958 -91.4763 -75.7598
-19.0566 -91.4964 -75.8883
-18.92 -91.5221 -76.0509
-18.7753 -91.5316 -76.1159
-18.6271 -91.5337 -76.1365
-18.4873 -91.5538 -76.265
-18.3523 -91.5846 -76.4582
-18.2107 -91.6018 -76.5691
-18.0659 -91.6122 -76.6395
-17.9216 -91.624 -76.7183
-17.7769 -91.6351 -76.793
-17.6295 -91.6405 -76.8334
-17.4931 -91.6708 -77.0231
-17.3562 -91.7007 -77.2101
-17.2061 -91.7005 -77.2169
-17.0548 -91.6978 -77.2085
-16.9115 -91.7137 -77.3121
-16.7553 -91.6992 -77.2332
-16.6089 -91.7084 -77.2958
-16.4574 -91.7051 -77.2841
-16.3115 -91.7154 -77.3539
-16.1745 -91.7484 -77.5594
-16.0397 -91.7873 -77.8008
-15.891 -91.792 -77.8368
-15.7521 -91.8219 -78.0235
-15.6201 -91.8705 -78.3232
-40.7885 -92.4006 -79.0183
-40.4974 -92.2704 -78.2569
-40.2609 -92.19 -77.7914
-40.0597 -92.1421 -77.5182
-39.8611 -92.0962 -77.2568
-39.6479 -92.0363 -76.912
-39.4482 -91.9885 -76.6397
-39.2528 -91.9446 -76.39
-39.0912 -91.9325 -76.329
-38.9365 -91.927 -76.3069
-38.7815 -91.9211 -76.2825
-38.6221 -91.9109 -76.233
-38.4557 -91.8939 -76.1427
-38.2675 -91.8555 -75.9258
-38.0998 -91.8369 -75.8262
-37.9362 -91.8221 -75.749
-37.7941 -91.8284 -75.7968
-37.6629 -91.8456 -75.9098
-37.4948 -91.8263 -75.8053
-37.3218 -91.8018 -75.6709
-37.1684 -91.797 -75.6524
-37.009 -91.7859 -75.5975
-36.8401 -91.7652 -75.4849
-36.6999 -91.7735 -75.5448
-36.5739 -91.7963 -75.6907
-36.4302 -91.8012 -75.7299
-36.2641 -91.7832 -75.6334
-36.1076 -91.7749 -75.5947
-35.9514 -91.7668 -75.5567
-35.8153 -91.7796 -75.6432
-35.6751 -91.7883 -75.7055
-35.5201 -91.7815 -75.6754
-35.3607 -91.77 -75.6174
-35.192 -91.7486 -75.5004
-34.9572 -91.8149 -75.9149
-34.8106 -91.8171 -75.938
-34.6382 -91.7915 -75.7965
-34.4743 -91.775 -75.7083
-34.319 -91.7676 -75.6749
-34.1669 -91.7637 -75.6618
-34.0277 -91.774 -75.7329
-33.8894 -91.7854 -75.8107
-33.7531 -91.7991 -75.9023
-33.6118 -91.8073 -75.9612
-33.469 -91.814 -76.0111
-33.3238 -91.818 -76.0451
-33.1683 -91.8104 -76.01
-33.0094 -91.799 -75.952
-32.8538 -91.7912 -75.9157
-32.6736 -91.7551 -75.711
-32.5337 -91.7651 -75.7806
-32.405 -91.7883 -75.928
-32.2621 -91.7951 -75.9786
-32.1256 -91.8095 -76.074
-31.9592 -91.7888 -75.9608
-31.8035 -91.7806 -75.9221
-31.6584 -91.785 -75.9584
-31.5019 -91.7757 -75.9129
-31.3476 -91.7692 -75.8838
-31.1948 -91.7642 -75.864
-31.0479 -91.7666 -75.8876
-30.9049 -91.7735 -75.9387
-30.7528 -91.7695 -75.9243
-30.6092 -91.7759 -75.9722
-30.4418 -91.7529 -75.8452
-30.3021 -91.7642 -75.9217
-30.1521 -91.7626 -75.9223
-30.0093 -91.7702 -75.9769
-29.8779 -91.7922 -76.1178
-29.7094 -91.7674 -75.9797
-29.5531 -91.7579 -75.9326
-29.4016 -91.7545 -75.9217
-29.2637 -91.7686 -76.0151
-29.1177 -91.7724 -76.0474
-28.9678 -91.7711 -76.0491
-28.8104 -91.7599 -75.992
-28.655 -91.7513 -75.9504
-28.5012 -91.7448 -75.9207
-28.3482 -91.7392 -75.8972
-28.2017 -91.7424 -75.9252
-28.0606 -91.7529 -75.9973
-27.9228 -91.7681 -76.0969
-27.778 -91.7738 -76.1402
-27.6129 -91.7517 -76.0179
-27.4589 -91.7446 -75.9854
-27.311 -91.7461 -76.0032
-27.1583 -91.7407 -75.9805
-27.0042 -91.7335 -75.9466
-26.8568 -91.7357 -75.9691
-26.7069 -91.7342 -75.9695
-26.5545 -91.7293 -75.9491
-26.4096 -91.7351 -75.9931
-26.2698 -91.7484 -76.0813
-26.112 -91.7355 -76.0137
-25.955 -91.7238 -75.9527
-25.8019 -91.7176 -75.9249
-25.6554 -91.7212 -75.9557
-25.5126 -91.7304 -76.0194
-25.3497 -91.7095 -75.9037
-25.2006 -91.7092 -75.9109
-25.065 -91.7295 -76.0408
-24.9213 -91.7376 -76.0982
-24.7629 -91.7233 -76.0217
-24.6067 -91.712 -75.9636
-24.454 -91.7063 -75.9383
-24.3041 -91.7047 -75.9378
-24.1601 -91.7127 -75.9944
-24.0034 -91.7004 -75.9297
-23.855 -91.7013 -75.944
-23.7043 -91.6985 -75.9362
-23.5543 -91.6969 -75.9353
-23.4075 -91.7005 -75.9655
-23.2587 -91.7009 -75.9765
-23.1086 -91.699 -75.9738
-22.9706 -91.7175 -76.0927
-22.8196 -91.7143 -76.0823
-22.6745 -91.7212 -76.1324
-22.5312 -91.7312 -76.2006
-22.3901 -91.7452 -76.2926
-22.2336 -91.7327 -76.2265
-22.0816 -91.7278 -76.2061
-21.9284 -91.7208 -76.1728
-21.7809 -91.7237 -76.1987
-21.6328 -91.7258 -76.2198
-21.4818 -91.7227 -76.2095
-21.3295 -91.717 -76.1841
-21.1778 -91.7126 -76.1662
-21.0261 -91.708 -76.1473
-20.8733 -91.7012 -76.115
-20.7218 -91.697 -76.0982
-20.5723 -91.6964 -76.1032
-20.4229 -91.696 -76.1092
-20.2731 -91.6948 -76.1105
-20.1299 -91.7065 -76.1881
-19.978 -91.7013 -76.1654
-19.8168 -91.6778 -76.0337
-19.6627 -91.6679 -75.9826
-19.5123 -91.6654 -75.9761
-19.3594 -91.6578 -75.9386
-19.2035 -91.6441 -75.865
-19.0709 -91.6778 -76.0746
-18.9242 -91.683 -76.1136
-18.7786 -91.6906 -76.1674
-18.6303 -91.6927 -76.188
-18.4843 -91.6998 -76.2385
-18.3529 -91.7384 -76.4769
-18.215 -91.7638 -76.6365
-18.0725 -91.7795 -76.7381
-17.9332 -91.8025 -76.8833
-17.793 -91.824 -77.02
-17.6424 -91.8224 -77.0181
-17.5015 -91.843 -77.1495
-17.3531 -91.8468 -77.1797
-17.2106 -91.8644 -77.2929
-17.059 -91.8608 -77.2794
-16.9091 -91.8615 -77.2915
-16.7593 -91.8624 -77.3046
-16.6117 -91.8685 -77.3492
-16.4583 -91.8606 -77.3096
-16.3128 -91.8723 -77.3873
-16.1738 -91.9001 -77.5614
-16.0318 -91.9213 -77.6957
-15.8886 -91.9399 -77.8143
-15.7524 -91.9767 -78.0422
-40.6012 -92.5198 -78.8313
-40.2856 -92.3655 -77.931
-40.1008 -92.3328 -77.7492
-39.8975 -92.2825 -77.4629
-39.6835 -92.2216 -77.1142
-39.4838 -92.1739 -76.8428
-39.2867 -92.1282 -76.5839
-39.1118 -92.1035 -76.4489
-38.9675 -92.108 -76.4862
-38.8008 -92.091 -76.3961
-38.6489 -92.0881 -76.3898
-38.4817 -92.0703 -76.2955
-38.272 -92.0109 -75.9553
-38.1162 -92.004 -75.9246
-37.9496 -91.9863 -75.8306
-37.8026 -91.9878 -75.8504
-37.6621 -91.9958 -75.9082
-37.4814 -91.9638 -75.7295
-37.3238 -91.9547 -75.6864
-37.1573 -91.9366 -75.5899
-37.0064 -91.9341 -75.5855
-36.8549 -91.9309 -75.5771
-36.7136 -91.9382 -75.6305
-36.5775 -91.9509 -75.7159
-36.4355 -91.9576 -75.7661
-36.2768 -91.9471 -75.7145
-36.1285 -91.9473 -75.7259
-35.9552 -91.9215 -75.584
-35.8009 -91.9154 -75.5582
-35.6727 -91.9367 -75.6945
-35.5238 -91.9363 -75.7021
-35.3642 -91.9246 -75.6432
-35.2179 -91.9269 -75.6671
-34.9606 -91.9695 -75.94
-34.8021 -91.959 -75.8878
-34.6353 -91.9394 -75.7822
-34.4743 -91.9258 -75.712
-34.3192 -91.9187 -75.6801
-34.1739 -91.9223 -75.7116
-34.0172 -91.9133 -75.6682
-33.8698 -91.9146 -75.6861
-33.7405 -91.9361 -75.8233
-33.6097 -91.9561 -75.9517
-33.4696 -91.9659 -76.0194
-33.3213 -91.9664 -76.0327
-33.1648 -91.9576 -75.9909
-33.0049 -91.945 -75.9261
-32.84 -91.9264 -75.8259
-32.6755 -91.9082 -75.7282
-32.5422 -91.926 -75.8433
-32.4016 -91.9354 -75.9092
-32.2449 -91.9261 -75.8637
-32.104 -91.9353 -75.9279
-31.9622 -91.9435 -75.9864
-31.8102 -91.9398 -75.9742
-31.6709 -91.9511 -76.0509
-31.5172 -91.9453 -76.0266
-31.3489 -91.9218 -75.8974
-31.1951 -91.9158 -75.8714
-31.0479 -91.9177 -75.8921
-30.9033 -91.9227 -75.932
-30.7641 -91.9346 -76.012
-30.6234 -91.9446 -76.0809
-30.4593 -91.9258 -75.979
-30.3027 -91.9161 -75.9315
-30.1676 -91.9333 -76.0429
-30.0168 -91.9309 -76.0384
-29.8703 -91.934 -76.0663
-29.7143 -91.925 -76.0224
-29.5563 -91.9133 -75.9624
-29.4016 -91.9057 -75.9269
-29.2628 -91.9188 -76.0138
-29.1221 -91.9295 -76.0869
-28.973 -91.9293 -76.0954
-28.8146 -91.9168 -76.0306
-28.6612 -91.911 -76.0054
-28.509 -91.9065 -75.9882
-28.3559 -91.9009 -75.9648
-28.2083 -91.9027 -75.9844
-28.0727 -91.9207 -76.1006
-27.9347 -91.9357 -76.1991
-27.7853 -91.9352 -76.205
-27.6086 -91.897 -75.9883
-27.4539 -91.889 -75.9499
-27.3167 -91.9054 -76.0565
-27.1692 -91.9075 -76.0777
-27.0133 -91.8977 -76.0288
-26.8632 -91.8961 -76.0286
-26.709 -91.8886 -75.9933
-26.5542 -91.8803 -75.9532
-26.4128 -91.8911 -76.0267
-26.2799 -91.9145 -76.1745
-26.1163 -91.8934 -76.058
-25.9609 -91.8838 -76.0105
-25.808 -91.878 -75.9853
-25.6599 -91.8793 -76.0019
-25.5113 -91.8799 -76.0145
-25.3572 -91.8722 -75.9773
-25.2151 -91.8827 -76.0489
-25.0716 -91.8912 -76.1083
-24.9239 -91.8933 -76.1294
-24.7665 -91.8804 -76.0622
-24.6095 -91.868 -75.9969
-24.4563 -91.8613 -75.9664
-24.3056 -91.8586 -75.9593
-24.1539 -91.8544 -75.9432
-24.0023 -91.8502 -75.9266
-23.854 -91.8513 -75.9423
-23.703 -91.848 -75.931
-23.5526 -91.8457 -75.9263
-23.4051 -91.8481 -75.9493
-23.2544 -91.8453 -75.9414
-23.1 -91.8363 -75.8965
-22.9615 -91.854 -76.0102
-22.8185 -91.8642 -76.0797
-22.6723 -91.8692 -76.1176
-22.5243 -91.8711 -76.1378
-22.3811 -91.8816 -76.2086
-22.2335 -91.8844 -76.2339
-22.0871 -91.8893 -76.2717
-21.9301 -91.8757 -76.1994
-21.7786 -91.8717 -76.1839
-21.6312 -91.8749 -76.2114
-21.4824 -91.8757 -76.2243
-21.3324 -91.8744 -76.2252
-21.1813 -91.8709 -76.213
-21.0281 -91.8637 -76.1783
-20.8749 -91.8563 -76.143
-20.7235 -91.8521 -76.1264
-20.5748 -91.8531 -76.1406
-20.4216 -91.8456 -76.104
-20.2754 -91.8514 -76.1469
-20.1347 -91.8678 -76.253
-19.9737 -91.845 -76.1255
-19.8167 -91.8297 -76.0427
-19.6637 -91.822 -76.0051
-19.5148 -91.8225 -76.0165
-19.3664 -91.8241 -76.034
-19.217 -91.8237 -76.0397
-19.0811 -91.8511 -76.2109
-18.9345 -91.8566 -76.2518
-18.7869 -91.8604 -76.282
-18.6424 -91.8708 -76.3524
-18.4905 -91.8654 -76.3281
-18.3512 -91.8875 -76.4672
-18.2223 -91.9322 -76.7415
-18.0835 -91.9564 -76.893
-17.9362 -91.9619 -76.934
-17.7923 -91.9753 -77.0216
-17.6461 -91.9838 -77.0797
-17.5021 -91.9974 -77.169
-17.3538 -92.0017 -77.202
-17.2099 -92.0161 -77.2957
-17.0582 -92.0123 -77.2811
-16.9082 -92.0126 -77.2908
-16.7611 -92.0201 -77.3433
-16.6089 -92.0151 -77.3214
-16.4548 -92.0057 -77.2729
-16.311 -92.0214 -77.3744
-16.1673 -92.0377 -77.4789
-16.0217 -92.0497 -77.5582
-15.8877 -92.0916 -77.8147
-40.1237 -92.5067 -77.879
-39.9117 -92.448 -77.5446
-39.6898 -92.3795 -77.1524
-39.4904 -92.3318 -76.8828
-39.3207 -92.3123 -76.779
-39.159 -92.3003 -76.7192
-38.9999 -92.2907 -76.6736
-38.829 -92.2696 -76.5602
-38.6638 -92.254 -76.4787
-38.4762 -92.2162 -76.2673
-38.2902 -92.1798 -76.0634
-38.1338 -92.1722 -76.0296
-37.9605 -92.1479 -75.8968
-37.8011 -92.1372 -75.8448
-37.6455 -92.1302 -75.8139
-37.5016 -92.135 -75.8524
-37.3337 -92.1155 -75.7483
-37.1625 -92.0926 -75.624
-37.0229 -92.1016 -75.6876
-36.8737 -92.1009 -75.6938
-36.7188 -92.0943 -75.6653
-36.5804 -92.1047 -75.7367
-36.4491 -92.1225 -75.8521
-36.2897 -92.1114 -75.797
-36.1357 -92.1057 -75.7742
-35.9751 -92.0932 -75.7105
-35.8191 -92.0853 -75.6746
-35.6763 -92.0913 -75.7203
-35.533 -92.0969 -75.7633
-35.3608 -92.0718 -75.6258
-35.2244 -92.0847 -75.7121
-35.079 -92.0881 -75.7419
-34.9492 -92.1083 -75.8716
-34.7931 -92.1003 -75.8343
-34.6327 -92.0875 -75.7689
-34.4743 -92.0768 -75.7164
-34.3225 -92.0733 -75.7056
-34.172 -92.0712 -75.7033
-34.0169 -92.0639 -75.6703
-33.8656 -92.0608 -75.6622
-33.7187 -92.0627 -75.6833
-33.5925 -92.0878 -75.8417
-33.4628 -92.1093 -75.9784
-33.3138 -92.109 -75.9865
-33.1579 -92.101 -75.949
-33.0033 -92.0942 -75.9192
-32.8419 -92.0797 -75.8434
-32.6949 -92.0817 -75.8653
-32.5603 -92.0981 -75.9719
-32.4103 -92.0967 -75.9735
-32.2521 -92.0857 -75.9184
-32.1052 -92.0879 -75.9412
-31.9613 -92.0937 -75.9851
-31.8145 -92.096 -76.0088
-31.675 -92.1073 -76.0849
-31.5191 -92.0988 -76.0447
-31.35 -92.0744 -75.9103
-31.1961 -92.0681 -75.8829
-31.0504 -92.0719 -75.9152
-30.9029 -92.0735 -75.9343
-30.7589 -92.0794 -75.9786
-30.6175 -92.0887 -76.043
-30.4689 -92.089 -76.0545
-30.3096 -92.076 -75.9876
-30.1624 -92.078 -76.0091
-30.0101 -92.0738 -75.9937
-29.8491 -92.0583 -75.9119
-29.7105 -92.0714 -75.9985
-29.5582 -92.067 -75.982
-29.4084 -92.0658 -75.9845
-29.2654 -92.0734 -76.0389
-29.1245 -92.084 -76.1109
-28.9793 -92.089 -76.1497
-28.8214 -92.0772 -76.0898
-28.6698 -92.0737 -76.078
-28.5197 -92.0721 -76.0784
-28.3654 -92.065 -76.0455
-28.2182 -92.0674 -76.0692
-28.0756 -92.0761 -76.1299
-27.9209 -92.0683 -76.0929
-27.7691 -92.0644 -76.0793
-27.6173 -92.0605 -76.0654
-27.4665 -92.058 -76.0597
-27.3254 -92.069 -76.134
-27.1754 -92.0676 -76.1352
-27.0249 -92.0657 -76.1328
-26.8642 -92.0491 -76.0439
-26.7072 -92.0375 -75.9844
-26.5569 -92.0355 -75.9818
-26.4152 -92.046 -76.0532
-26.2821 -92.0694 -76.2001
-26.1241 -92.0563 -76.132
-25.9662 -92.0433 -76.0641
-25.8077 -92.0291 -75.9895
-25.6631 -92.0356 -76.0368
-25.5068 -92.0246 -75.9807
-25.3628 -92.0322 -76.0349
-25.2232 -92.0466 -76.1285
-25.0762 -92.0498 -76.1563
-24.9247 -92.0461 -76.1434
-24.7691 -92.0361 -76.0931
-24.6131 -92.0252 -76.0375
-24.4589 -92.0171 -75.9985
-24.3065 -92.0117 -75.9753
-24.1555 -92.0085 -75.9652
-24.0056 -92.007 -75.9652
-23.8547 -92.004 -75.9565
-23.7022 -91.9983 -75.9312
-23.5509 -91.9945 -75.9176
-23.4024 -91.9952 -75.9305
-23.2525 -91.9938 -75.9304
-23.0981 -91.9847 -75.8853
-22.9566 -91.9973 -75.9688
-22.8133 -92.0071 -76.0351
-22.6648 -92.0082 -76.0504
-22.5189 -92.0136 -76.0908
-22.3753 -92.0234 -76.1571
-22.2318 -92.0333 -76.2242
-22.0905 -92.0473 -76.3158
-21.9342 -92.0349 -76.2508
-21.7789 -92.024 -76.1948
-21.6322 -92.0286 -76.2305
-21.4825 -92.028 -76.235
-21.3373 -92.0354 -76.2874
-21.1856 -92.0309 -76.2691
-21.031 -92.021 -76.219
-20.8764 -92.011 -76.168
-20.7254 -92.0078 -76.1573
-20.5771 -92.0096 -76.1765
-20.4249 -92.004 -76.1513
-20.2722 -91.9972 -76.1197
-20.1331 -92.0169 -76.2445
-19.9726 -91.9949 -76.1222
-19.8187 -91.9855 -76.0753
-19.6678 -91.9823 -76.0644
-19.5203 -91.9857 -76.0925
-19.3721 -91.9878 -76.1129
-19.2271 -91.9965 -76.1726
-19.0869 -92.0153 -76.292
-18.9434 -92.0276 -76.3729
-18.7944 -92.0286 -76.387
-18.6495 -92.0383 -76.4525
-18.4945 -92.0265 -76.3902
-18.3565 -92.0515 -76.5467
-18.2225 -92.0857 -76.7567
-18.0846 -92.1117 -76.9186
-17.9357 -92.1139 -76.9398
-17.7908 -92.1251 -77.0141
-17.6408 -92.125 -77.0213
-17.4967 -92.1384 -77.1088
-17.3556 -92.1589 -77.238
-17.2052 -92.1584 -77.2429
-17.0537 -92.1551 -77.2313
-16.9072 -92.1638 -77.2906
