27.9543 7.1542 0.5978
28.1682 7.1625 0.5772
28.3815 7.1686 0.5667
28.5942 7.1718 0.5688
28.8085 7.1814 0.5424
29.0225 7.1899 0.5213
29.2349 7.1917 0.5298
29.4469 7.1925 0.543
29.6599 7.1967 0.541
29.8747 7.2077 0.5086
30.09 7.2201 0.4701
30.3028 7.2235 0.4718
30.5152 7.2256 0.4792
30.7286 7.2308 0.473
8.6054 6.8766 -0.5172
8.8205 6.8545 -0.4036
9.0347 6.8424 -0.3349
9.2484 6.8346 -0.2855
9.462 6.829 -0.2461
9.6752 6.8273 -0.2243
9.8881 6.8312 -0.2275
10.1 6.8521 -0.3075
10.3119 6.874 -0.3918
10.5246 6.8855 -0.4288
10.7376 6.8893 -0.432
10.9507 6.8933 -0.4355
11.1638 6.895 -0.4287
11.3771 6.8931 -0.4054
11.5905 6.8862 -0.3601
11.8037 6.8854 -0.3417
12.0167 6.8886 -0.3417
12.2299 6.8851 -0.3111
12.4431 6.8742 -0.2476
12.6563 6.8609 -0.173
12.8694 6.8413 -0.0703
13.0825 6.8072 0.0978
13.2953 6.7676 0.2906
13.5078 6.7365 0.4454
13.7202 6.7245 0.5142
13.9325 6.718 0.5581
14.1447 6.712 0.5999
14.3572 6.7251 0.5556
14.57 6.752 0.4495
14.7831 6.7856 0.3132
14.9964 6.8154 0.1943
15.2093 6.8267 0.1586
15.4221 6.8349 0.1366
15.6348 6.8369 0.1424
15.8472 6.8328 0.1759
16.0597 6.8326 0.192
16.2721 6.8306 0.2159
16.4846 6.829 0.2383
16.6971 6.8296 0.2509
16.9093 6.8264 0.2801
17.1219 6.8284 0.2864
17.3346 6.8331 0.2805
17.5465 6.8266 0.3249
17.7583 6.8188 0.3754
17.9699 6.8096 0.4317
18.1813 6.7988 0.4957
18.392 6.7799 0.596
18.6022 6.7577 0.7114
18.8124 6.7376 0.8171
19.0229 6.7233 0.8965
19.2346 6.7213 0.921
19.4473 6.73 0.8973
19.661 6.7473 0.835
19.8771 6.7868 0.673
20.0933 6.8238 0.5226
20.3068 6.8365 0.4809
20.5187 6.8339 0.5082
20.7306 6.8328 0.529
20.9441 6.8435 0.4966
21.1565 6.8457 0.5023
21.368 6.8416 0.5366
21.5808 6.8464 0.5305
21.7935 6.851 0.5257
22.0064 6.8572 0.5139
22.2195 6.8639 0.4995
22.4321 6.868 0.497
22.6447 6.8712 0.4984
22.8571 6.8738 0.5029
23.0692 6.8739 0.5183
23.2802 6.8677 0.5619
23.4891 6.8493 0.6606
23.6952 6.816 0.8258
23.9034 6.7959 0.9321
24.1129 6.7839 1.0023
24.3221 6.771 1.0761
24.5325 6.7649 1.1194
24.7435 6.762 1.1486
24.9555 6.7648 1.1524
25.1673 6.7668 1.1593
25.378 6.763 1.1925
25.5915 6.7733 1.1628
25.8077 6.7962 1.0763
26.0237 6.8173 0.9982
26.2387 6.8334 0.9422
26.4551 6.8555 0.8592
26.6738 6.8872 0.7337
26.8892 6.903 0.6791
27.1027 6.9106 0.6618
27.3156 6.9154 0.6568
27.5294 6.9241 0.6342
27.7436 6.9341 0.6057
27.9565 6.9388 0.6015
28.1689 6.9411 0.6075
28.3824 6.9479 0.5939
28.5963 6.9562 0.5732
28.8101 6.9637 0.5561
29.0233 6.9691 0.549
29.2361 6.9728 0.5488
29.4486 6.9754 0.5542
29.6612 6.9782 0.5584
29.8763 6.9904 0.5203
30.0922 7.0049 0.4726
30.3047 7.0072 0.479
30.5158 7.0046 0.5073
30.7282 7.0068 0.5145
30.94 7.0069 0.531
31.1475 6.9924 0.613
31.3588 6.9909 0.6366
31.5786 7.0178 0.5332
31.8011 7.0525 0.3949
8.6078 6.6693 -0.553
8.8232 6.644 -0.4245
9.0376 6.6294 -0.3444
9.2514 6.6211 -0.2925
9.465 6.615 -0.2506
9.678 6.6163 -0.2422
9.8909 6.6205 -0.2466
10.1029 6.6384 -0.3134
10.3149 6.6604 -0.3985
10.5275 6.6731 -0.4416
10.7406 6.6763 -0.4414
10.9537 6.6793 -0.4405
11.1667 6.6835 -0.4452
11.38 6.6802 -0.4154
11.5936 6.6691 -0.3508
11.8068 6.6645 -0.3156
12.0198 6.6681 -0.3171
12.2329 6.666 -0.2933
12.4461 6.6586 -0.2449
12.6593 6.6456 -0.1714
12.8725 6.6186 -0.035
13.0855 6.582 0.1453
13.2983 6.5462 0.3216
13.5108 6.5215 0.4477
13.7231 6.5084 0.5217
13.9354 6.4987 0.5803
14.1477 6.4989 0.5941
14.3602 6.5153 0.5348
14.573 6.5434 0.4229
14.7862 6.5794 0.2753
14.9993 6.6026 0.1859
15.2121 6.6119 0.1586
15.4249 6.6186 0.1434
15.6374 6.617 0.1656
15.8498 6.6121 0.2031
16.0623 6.611 0.2231
16.2747 6.6108 0.2388
16.4873 6.6129 0.2446
16.6998 6.6128 0.2605
16.9122 6.6123 0.2776
17.1249 6.6174 0.27
17.3376 6.6213 0.2678
17.5497 6.618 0.298
17.7615 6.6093 0.3525
17.9725 6.5917 0.4469
18.1834 6.575 0.5379
18.3938 6.554 0.6479
18.6038 6.5304 0.7698
18.8139 6.5107 0.874
19.0246 6.4973 0.9498
19.2365 6.4986 0.9594
19.4495 6.5109 0.9193
19.6641 6.5373 0.8159
19.8808 6.5815 0.6323
20.0963 6.6121 0.5097
20.3094 6.6206 0.4874
20.5213 6.6187 0.5113
20.7333 6.6181 0.53
20.9463 6.6251 0.5139
21.1586 6.6272 0.5203
21.3694 6.6175 0.5799
21.5823 6.6242 0.5654
21.7954 6.6313 0.5489
22.0093 6.6442 0.507
22.223 6.6556 0.4713
22.4344 6.6509 0.5085
22.6467 6.6531 0.5144
22.8594 6.6568 0.5137
23.0711 6.6552 0.5369
23.2824 6.6509 0.5722
23.4916 6.6347 0.6612
23.6981 6.6033 0.8188
23.9049 6.5756 0.9595
24.1137 6.56 1.0461
24.3233 6.5495 1.1093
24.5338 6.544 1.1504
24.7449 6.542 1.1755
24.9569 6.5453 1.1768
25.1689 6.5477 1.1819
25.3801 6.547 1.2015
25.5941 6.5597 1.1607
25.8106 6.584 1.0675
26.0263 6.6036 0.9959
26.2418 6.6217 0.9304
26.4585 6.6453 0.8407
26.6765 6.6737 0.7296
26.8914 6.6875 0.684
27.1048 6.6948 0.6673
27.3175 6.6986 0.6668
27.5307 6.7048 0.6558
27.7449 6.715 0.6264
27.9587 6.723 0.6071
28.1711 6.7254 0.6126
28.3844 6.7315 0.6022
28.5986 6.741 0.5757
28.8111 6.7438 0.5801
29.0233 6.7453 0.59
29.2367 6.7515 0.5789
29.4502 6.758 0.5665
29.6639 6.7648 0.5528
29.8783 6.7742 0.5274
30.0931 6.785 0.4956
30.3069 6.7921 0.4808
30.5186 6.7916 0.4998
30.7286 6.7855 0.5445
30.9393 6.7819 0.5775
31.1482 6.7725 0.6369
31.3585 6.7677 0.6751
31.5717 6.7729 0.6688
31.7857 6.7805 0.652
32.0006 6.791 0.622
8.6101 6.464 -0.598
8.8259 6.4342 -0.4484
9.0405 6.4163 -0.353
9.2541 6.4112 -0.3154
9.4675 6.4075 -0.2843
9.6808 6.4049 -0.2582
9.8937 6.4087 -0.2611
10.1058 6.4274 -0.3317
10.3178 6.4474 -0.408
10.5307 6.4547 -0.4268
10.7437 6.4597 -0.4346
10.9567 6.4644 -0.4416
11.1698 6.466 -0.4344
11.3832 6.462 -0.4017
11.5965 6.4551 -0.3559
11.8098 6.4494 -0.3152
12.0228 6.4508 -0.3069
12.2359 6.4525 -0.3002
12.449 6.4458 -0.2548
12.6623 6.4263 -0.1519
12.8755 6.3944 0.0076
13.0885 6.3596 0.1802
13.3012 6.3256 0.3487
13.5137 6.3042 0.4609
13.726 6.2895 0.5424
13.9382 6.2777 0.6104
14.1505 6.2808 0.6111
14.3631 6.3001 0.5386
14.5759 6.3305 0.416
14.7891 6.3669 0.2657
15.0021 6.3857 0.1957
15.2149 6.3923 0.1807
15.4275 6.3968 0.1756
15.6402 6.4001 0.1757
15.8526 6.3961 0.2089
16.065 6.394 0.2337
16.2775 6.3938 0.2496
16.4901 6.397 0.2501
16.7024 6.3958 0.2709
16.915 6.3982 0.2755
17.1277 6.4022 0.2724
17.3402 6.4039 0.2801
17.5525 6.4026 0.3012
17.7643 6.3952 0.3502
17.9751 6.3754 0.4553
18.1856 6.354 0.5674
18.3956 6.3291 0.6955
18.606 6.3098 0.7983
18.8162 6.291 0.8991
19.0268 6.2778 0.974
19.2388 6.2803 0.9783
19.4523 6.2975 0.9162
19.6677 6.3309 0.7803
19.8842 6.373 0.6054
20.099 6.3975 0.5105
20.3119 6.405 0.4923
20.5239 6.4034 0.515
20.7357 6.4017 0.5387
20.9486 6.4082 0.5246
21.1607 6.4082 0.5406
21.3719 6.4018 0.5856
21.5849 6.4094 0.5667
21.7982 6.4181 0.5431
22.0113 6.4258 0.5244
22.2249 6.4359 0.4946
22.4368 6.4355 0.5125
22.6487 6.4342 0.5343
22.8613 6.438 0.533
23.0736 6.4397 0.5414
23.285 6.4362 0.5734
23.4949 6.4247 0.6412
23.7006 6.389 0.8187
23.9058 6.3523 1.001
24.1145 6.3363 1.089
24.3244 6.3272 1.1464
24.5351 6.3236 1.179
24.7471 6.3266 1.1814
24.9592 6.33 1.1827
25.1705 6.3296 1.2007
25.3822 6.3307 1.2116
25.5957 6.3411 1.1812
25.8112 6.3608 1.1084
26.0266 6.3791 1.0424
26.2429 6.4012 0.9588
26.4603 6.4278 0.8553
26.6784 6.4564 0.7422
26.8941 6.4743 0.6782
27.1078 6.4826 0.6573
27.3204 6.4861 0.6578
27.5333 6.491 0.6524
27.7469 6.4985 0.6352
27.9609 6.5076 0.6107
28.1729 6.5084 0.624
28.3863 6.5149 0.6112
28.6005 6.5245 0.5846
28.8128 6.5264 0.5926
29.0242 6.525 0.6157
29.237 6.5291 0.6141
29.452 6.5409 0.5776
29.667 6.5528 0.5408
29.8805 6.5591 0.5295
30.0939 6.5649 0.5201
30.3087 6.5754 0.4898
30.5212 6.578 0.4952
30.7314 6.5722 0.5382
30.9411 6.5653 0.5863
31.1486 6.5514 0.6663
31.3579 6.5438 0.7176
31.5686 6.5409 0.7478
31.7808 6.5429 0.7559
31.993 6.545 0.7633
32.6388 6.5795 0.6594
32.8514 6.5826 0.6629
33.0835 6.6442 0.4026
8.6126 6.2562 -0.6318
8.8285 6.2258 -0.4788
9.0431 6.2078 -0.3826
9.257 6.1991 -0.3289
9.4705 6.1948 -0.2946
9.6837 6.1927 -0.2706
9.8963 6.201 -0.2941
10.1084 6.2193 -0.3631
10.3208 6.2349 -0.4196
10.5337 6.2392 -0.425
10.7468 6.2422 -0.4238
10.9597 6.2484 -0.4376
11.1728 6.2509 -0.4342
11.3862 6.2462 -0.3985
11.5996 6.2368 -0.3409
11.8127 6.2361 -0.3233
12.0258 6.2369 -0.312
12.2389 6.2333 -0.2811
12.4521 6.224 -0.2238
12.6654 6.2014 -0.1064
12.8786 6.1699 0.0519
13.0915 6.1363 0.2196
13.3042 6.1055 0.3741
13.5166 6.082 0.496
13.7289 6.0655 0.5859
13.9411 6.0561 0.6436
14.1534 6.0621 0.6311
14.3658 6.0773 0.5769
14.5787 6.1088 0.4489
14.7919 6.1498 0.2775
15.0049 6.1692 0.204
15.2176 6.1751 0.1922
15.4303 6.1789 0.1903
15.643 6.1828 0.1876
15.8554 6.1816 0.2081
16.0678 6.1782 0.239
16.2803 6.1794 0.2486
16.4929 6.1832 0.2464
16.7055 6.1853 0.2523
16.918 6.1869 0.2602
17.1304 6.1863 0.2783
17.3427 6.185 0.2996
17.5549 6.1828 0.3252
17.7668 6.1767 0.3681
17.9776 6.1574 0.4713
18.1879 6.1333 0.596
18.3977 6.1063 0.7344
18.6081 6.0883 0.8315
18.8184 6.0708 0.9265
19.0293 6.0614 0.9848
19.2417 6.0685 0.9679
19.4556 6.0888 0.8915
19.671 6.1223 0.7547
19.8872 6.1617 0.5916
20.102 6.1859 0.4976
20.3149 6.1932 0.4799
20.5266 6.1895 0.5124
20.7386 6.1886 0.5324
20.9514 6.1947 0.5202
21.163 6.1909 0.5535
21.3746 6.188 0.5825
21.5879 6.1973 0.5562
21.8007 6.2028 0.5471
22.0131 6.2055 0.5506
22.2264 6.2139 0.5288
22.4388 6.2168 0.5314
22.6504 6.2141 0.5598
22.8631 6.2185 0.5559
23.0759 6.2239 0.5474
23.2877 6.2226 0.5692
23.4977 6.2115 0.6357
23.7023 6.1697 0.8416
23.9072 6.1315 1.0312
24.1158 6.1154 1.1202
24.3258 6.1074 1.1726
24.5368 6.1051 1.1994
24.7491 6.1097 1.1949
24.9614 6.1144 1.1899
25.1726 6.1133 1.2111
25.3839 6.1127 1.2301
25.5967 6.12 1.2135
25.8115 6.1363 1.1557
26.0276 6.1583 1.0726
26.2446 6.1834 0.9752
26.4626 6.213 0.8577
26.6809 6.2423 0.7413
26.8973 6.2628 0.6648
27.111 6.2712 0.6432
27.3228 6.2714 0.6589
27.5358 6.2768 0.6513
27.7499 6.2862 0.6252
27.9641 6.2961 0.597
28.1759 6.2964 0.6126
28.389 6.3017 0.6052
28.6028 6.3096 0.5863
28.8153 6.3122 0.5912
29.0262 6.3092 0.6215
29.2381 6.3096 0.6367
29.4532 6.3222 0.5964
29.6695 6.3388 0.5383
29.8838 6.3477 0.5149
30.0963 6.3505 0.5194
30.3102 6.3576 0.5041
30.5222 6.3586 0.5165
30.7323 6.3529 0.5592
30.9419 6.3458 0.6087
31.1491 6.3309 0.6929
31.3577 6.3211 0.7547
31.5674 6.3148 0.8002
31.7785 6.3138 0.8221
31.9891 6.3108 0.8529
32.2034 6.3197 0.8298
32.4219 6.3416 0.7478
32.6348 6.3457 0.7466
32.849 6.3538 0.7271
33.0653 6.3681 0.6801
33.2843 6.3902 0.5971
33.5629 6.5867 -0.2739
8.6158 6.0402 -0.6282
8.8311 6.0158 -0.5021
9.0457 5.9992 -0.4122
9.2599 5.9858 -0.3364
9.4735 5.9794 -0.2927
9.6868 5.9779 -0.2713
9.8991 5.9914 -0.3187
10.111 6.0117 -0.3971
10.3236 6.0232 -0.4352
10.5368 6.0231 -0.42
10.75 6.0228 -0.404
10.963 6.028 -0.4131
11.1761 6.0292 -0.4043
11.3893 6.028 -0.384
11.6027 6.0202 -0.3335
11.8158 6.0204 -0.3199
12.0288 6.0208 -0.307
12.242 6.0122 -0.2531
12.4552 6.0004 -0.1843
12.6685 5.978 -0.0674
12.8816 5.9446 0.1002
13.0945 5.9103 0.2714
13.3071 5.8812 0.4191
13.5195 5.8586 0.5375
13.7318 5.8461 0.6094
13.944 5.8418 0.644
14.1562 5.847 0.6348
14.3687 5.8608 0.587
14.5815 5.8901 0.4681
14.7947 5.9293 0.3043
15.0078 5.9547 0.2035
15.2205 5.9608 0.1908
15.4331 5.9617 0.2021
15.6457 5.9638 0.2076
15.8582 5.9643 0.2203
16.0706 5.9642 0.2359
16.2832 5.9666 0.2404
16.4958 5.9686 0.2466
16.7084 5.9733 0.2404
16.921 5.9751 0.2475
17.133 5.9694 0.289
17.3452 5.966 0.3197
17.5575 5.9658 0.3358
17.7695 5.9619 0.3694
17.9802 5.9406 0.4821
18.1902 5.9136 0.6204
18.3999 5.8859 0.7621
18.6099 5.864 0.8776
18.8206 5.851 0.9526
19.0318 5.8454 0.9935
19.2446 5.8562 0.9597
19.4581 5.8731 0.8983
19.6734 5.9055 0.7666
19.8901 5.9495 0.5817
20.105 5.9743 0.4843
20.3176 5.9783 0.4817
20.529 5.9727 0.523
20.7414 5.9751 0.5279
20.9536 5.9765 0.5376
21.1647 5.9696 0.5848
21.3773 5.9737 0.5821
21.5905 5.9824 0.5583
21.8028 5.9848 0.5634
22.0158 5.9917 0.5478
22.2289 5.9988 0.5314
22.4412 6.0007 0.5388
22.6528 5.9986 0.5645
22.8659 6.0055 0.5493
23.0794 6.0148 0.5228
23.2915 6.0155 0.5357
23.4999 5.9944 0.6479
23.7038 5.9491 0.8703
23.909 5.9134 1.0495
24.1178 5.8984 1.1336
24.3276 5.8895 1.1903
24.5387 5.8879 1.2141
24.7505 5.89 1.2207
24.9625 5.8931 1.2231
25.1746 5.8966 1.2235
25.3867 5.9002 1.2235
25.5995 5.9071 1.2082
25.8138 5.9214 1.1596
26.0305 5.9459 1.0647
26.2474 5.9709 0.9675
26.4656 6.0009 0.8475
26.6834 6.028 0.7408
26.8994 6.0471 0.6707
27.1135 6.0571 0.6417
27.3254 6.0578 0.6552
27.5389 6.0652 0.6384
27.7534 6.0762 0.6049
27.9675 6.0857 0.5786
28.1796 6.0869 0.5896
28.3924 6.0911 0.5876
28.6054 6.0957 0.5834
28.8178 6.098 0.5895
29.0295 6.0981 0.6061
29.2412 6.0978 0.6244
29.4553 6.1066 0.6013
29.671 6.1209 0.5533
29.8849 6.1287 0.5348
30.0979 6.133 0.5324
30.3113 6.1389 0.5227
30.5232 6.1394 0.5373
30.7315 6.1275 0.6083
30.9403 6.1179 0.6694
31.1489 6.1079 0.7316
31.3574 6.0979 0.7942
31.5663 6.0896 0.8491
31.7782 6.091 0.8601
31.9909 6.095 0.8592
32.2049 6.1028 0.841
32.4207 6.1162 0.7975
32.6333 6.1198 0.7984
32.8465 6.1251 0.7918
33.0625 6.1386 0.7479
33.2786 6.1522 0.7035
33.4973 6.1731 0.6258
33.7225 6.2124 0.4649
8.6188 5.8253 -0.6297
8.8341 5.8028 -0.512
9.0485 5.7877 -0.4282
9.2628 5.7736 -0.3491
9.4765 5.7667 -0.3033
9.6897 5.7657 -0.2843
9.9021 5.7772 -0.3222
10.114 5.7989 -0.4074
10.3266 5.8091 -0.4394
10.5399 5.8073 -0.4167
10.7531 5.8063 -0.3977
10.9662 5.8088 -0.3944
11.1794 5.8064 -0.3685
11.3925 5.8067 -0.3553
11.6057 5.8043 -0.3294
11.8188 5.8028 -0.3081
12.0318 5.8054 -0.3052
12.2449 5.7996 -0.264
12.4582 5.7823 -0.1697
12.6715 5.7552 -0.0305
12.8847 5.7183 0.1535
13.0975 5.6843 0.3239
13.3101 5.6573 0.4629
13.5224 5.6377 0.5673
13.7347 5.6268 0.6325
13.9469 5.626 0.6509
14.1591 5.6294 0.6505
14.3715 5.643 0.6032
14.5843 5.6724 0.4836
14.7975 5.712 0.3173
15.0107 5.7405 0.2019
15.2233 5.7439 0.2012
15.4358 5.7426 0.2224
15.6483 5.744 0.231
15.8609 5.748 0.2283
16.0736 5.7523 0.2236
16.2861 5.7543 0.2297
16.4985 5.7531 0.2507
16.7113 5.759 0.2389
16.9237 5.7597 0.2513
17.1356 5.7515 0.304
17.3477 5.7469 0.3407
17.5601 5.7482 0.3499
17.7719 5.7414 0.3967
17.9825 5.72 0.5101
18.1925 5.6939 0.6452
18.402 5.6644 0.7957
18.6119 5.6413 0.9169
18.823 5.6332 0.9695
19.0346 5.6315 0.9931
19.247 5.6391 0.9738
19.46 5.6507 0.9364
19.6755 5.686 0.7906
19.893 5.7362 0.5767
20.1077 5.7602 0.4825
20.3198 5.7602 0.4986
20.5313 5.7553 0.5366
20.7434 5.7552 0.553
20.9553 5.7543 0.5728
21.1672 5.7535 0.5926
21.3802 5.7615 0.5721
21.593 5.7668 0.5635
21.8052 5.7682 0.573
22.0181 5.7751 0.5579
22.2311 5.7813 0.5454
22.4436 5.7847 0.5457
22.6557 5.7855 0.5585
22.869 5.7942 0.5349
23.0828 5.8053 0.5002
23.2943 5.802 0.5315
23.5017 5.7756 0.6685
23.7052 5.7285 0.8997
23.9109 5.6953 1.0676
24.1191 5.6771 1.167
24.3291 5.6696 1.2175
24.5407 5.6709 1.2282
24.7516 5.6687 1.2545
24.9638 5.6728 1.252
25.1767 5.6807 1.2325
25.3896 5.6883 1.2138
25.6028 5.6975 1.1887
25.8166 5.7085 1.1546
26.0333 5.7333 1.0577
26.2516 5.7643 0.9328
26.4696 5.7934 0.8165
26.6865 5.8164 0.7282
26.9015 5.8311 0.6777
27.1158 5.8418 0.6458
27.3281 5.8442 0.6512
27.5416 5.8517 0.6338
27.7558 5.8616 0.6053
27.97 5.8715 0.5769
28.1825 5.8741 0.5818
28.3946 5.8755 0.5923
28.6069 5.8776 0.5997
28.8202 5.8837 0.5889
29.0326 5.8863 0.5936
29.2439 5.8846 0.6187
29.4573 5.8909 0.6068
29.6712 5.8986 0.5887
29.8855 5.908 0.5628
30.1007 5.9199 0.5253
30.314 5.9254 0.5174
30.5239 5.9189 0.5642
30.7304 5.9014 0.6612
30.9385 5.8896 0.7321
31.1479 5.8828 0.7805
31.3563 5.8726 0.844
31.5666 5.8688 0.8788
31.7788 5.8712 0.8849
31.9911 5.8739 0.8901
32.2055 5.8834 0.8638
32.4204 5.8941 0.8325
32.6321 5.8949 0.8463
32.8461 5.9024 0.8293
33.0615 5.9142 0.7929
33.2759 5.9232 0.7697
33.4932 5.9401 0.7101
33.7116 5.96 0.637
33.9279 5.9736 0.5926
34.1447 5.9881 0.544
34.3601 5.9986 0.5135
34.5844 6.0336 0.3718
34.8136 6.0814 0.1716
35.0878 6.2504 -0.5804
8.622 5.609 -0.6246
8.837 5.5898 -0.5214
9.0513 5.5764 -0.4456
9.2657 5.5616 -0.3631
9.4795 5.5525 -0.3065
9.6926 5.5528 -0.2935
9.9049 5.5653 -0.3363
10.117 5.5844 -0.4095
10.3298 5.5907 -0.4243
10.543 5.5917 -0.4142
10.7561 5.5931 -0.4059
10.9692 5.5943 -0.3965
11.1825 5.5905 -0.3646
11.3957 5.5881 -0.3389
11.6088 5.5873 -0.3202
11.8218 5.5865 -0.302
12.0348 5.5904 -0.305
12.2479 5.5856 -0.2683
12.4613 5.5639 -0.1536
12.6746 5.5313 0.0114
12.8877 5.4924 0.2053
13.1005 5.46 0.3693
13.313 5.4346 0.501
13.5253 5.4169 0.5973
13.7375 5.4068 0.6589
13.9497 5.4045 0.6844
14.1619 5.4072 0.687
14.3743 5.421 0.6386
14.587 5.4508 0.5166
14.8003 5.4945 0.3309
15.0135 5.5245 0.2084
15.2262 5.5287 0.204
15.4386 5.526 0.2319
15.6511 5.5279 0.2382
15.8639 5.5366 0.2135
16.0764 5.5376 0.2244
16.2888 5.5353 0.25
16.5012 5.5358 0.2632
16.714 5.5428 0.2464
16.9265 5.5436 0.2581
17.1383 5.5358 0.3095
17.3504 5.5311 0.3465
17.5624 5.5271 0.3805
17.7738 5.5152 0.4504
17.9845 5.4966 0.5514
18.1945 5.4707 0.6861
18.4039 5.44 0.8427
18.614 5.4203 0.9489
18.8254 5.4161 0.9836
19.0372 5.417 0.9954
19.2494 5.421 0.9926
19.462 5.43 0.967
19.6771 5.4608 0.8411
19.8944 5.5105 0.6285
20.11 5.5422 0.4991
20.3224 5.5444 0.5046
20.5342 5.5421 0.531
20.7456 5.5373 0.5691
20.9574 5.5357 0.5925
21.1698 5.5391 0.5927
21.3831 5.5488 0.564
21.5959 5.5545 0.5539
21.8081 5.5563 0.562
22.0207 5.5603 0.5597
22.2333 5.5644 0.5569
22.4463 5.5708 0.5435
22.6586 5.5733 0.5482
22.8718 5.5809 0.5297
23.085 5.5884 0.5113
23.2957 5.5808 0.5625
23.5023 5.5499 0.7203
23.705 5.4988 0.9711
23.912 5.473 1.1055
24.1209 5.4596 1.1836
24.331 5.4524 1.2326
24.5422 5.4517 1.2525
24.7532 5.4501 1.276
24.9661 5.4578 1.2572
25.1792 5.4669 1.232
25.3924 5.4758 1.2074
25.6058 5.4858 1.1781
25.8195 5.4968 1.1443
26.0364 5.5222 1.0444
26.2556 5.5573 0.9
26.4734 5.5848 0.7905
26.6896 5.605 0.715
26.9042 5.6176 0.6739
27.117 5.6222 0.6692
27.3297 5.6262 0.6678
27.5431 5.6334 0.6517
27.757 5.6422 0.6278
27.9709 5.6509 0.6049
28.1842 5.6569 0.5945
28.3966 5.6597 0.5985
28.6085 5.6602 0.6129
28.8221 5.6673 0.5973
29.0354 5.6734 0.5866
29.2467 5.6716 0.6118
29.4594 5.6754 0.6112
29.6735 5.6838 0.5898
29.8886 5.6958 0.552
30.1034 5.7067 0.5193
30.3154 5.7074 0.5333
30.5248 5.6998 0.5853
30.7323 5.6857 0.667
30.9398 5.6719 0.7474
31.1487 5.6633 0.8036
31.3564 5.6508 0.8782
31.5668 5.6478 0.9094
31.7797 5.6525 0.9051
31.9913 5.6531 0.9197
32.2064 5.6646 0.8843
32.4205 5.6729 0.864
32.6322 5.674 0.8761
32.8472 5.6846 0.845
33.0629 5.6974 0.804
33.2767 5.7043 0.7899
33.4941 5.7216 0.7284
33.711 5.7373 0.6739
33.9241 5.7416 0.6718
34.1406 5.7558 0.6246
34.3596 5.7764 0.5481
34.5788 5.7974 0.4698
34.8014 5.8274 0.3505
35.0186 5.8421 0.301
35.2321 5.8465 0.2987
35.4523 5.8689 0.2137
35.6685 5.8804 0.1793
35.886 5.8951 0.13
36.1007 5.9023 0.115
36.3192 5.9191 0.0558
36.5315 5.9198 0.0706
8.6255 5.3893 -0.6032
8.8403 5.3718 -0.508
9.0546 5.3583 -0.4314
9.269 5.3433 -0.3472
9.4827 5.3347 -0.2929
9.6957 5.3373 -0.2906
9.9078 5.3538 -0.3521
10.1201 5.3672 -0.3997
10.333 5.372 -0.4071
10.546 5.3773 -0.4168
10.7591 5.3769 -0.4004
10.9722 5.3786 -0.3936
11.1854 5.3762 -0.3676
11.3986 5.375 -0.3476
11.6117 5.3747 -0.3313
11.8248 5.3731 -0.3089
12.0378 5.3736 -0.2965
12.251 5.3665 -0.2485
12.4643 5.3438 -0.1291
12.6777 5.3085 0.0488
12.8908 5.2687 0.2477
13.1035 5.2368 0.41
13.316 5.2107 0.5453
13.5282 5.195 0.6327
13.7404 5.1881 0.6799
13.9526 5.184 0.7138
14.1647 5.1853 0.7229
14.377 5.1974 0.6818
14.5897 5.2269 0.5609
14.803 5.2731 0.3629
15.0163 5.308 0.217
15.229 5.3121 0.2135
15.4413 5.3092 0.2419
15.654 5.3155 0.2283
15.8667 5.3218 0.2146
16.0793 5.3237 0.2211
16.2917 5.3224 0.2427
16.5041 5.3226 0.2572
16.7167 5.3264 0.2549
16.9291 5.3272 0.2665
17.1414 5.3257 0.2891
17.3534 5.3208 0.3272
17.5648 5.3069 0.4069
17.7753 5.284 0.5279
17.9858 5.2631 0.6398
18.1959 5.2394 0.7647
18.4061 5.219 0.8743
18.6167 5.2061 0.9498
18.8285 5.2055 0.968
19.0397 5.2008 1.0054
19.2515 5.2009 1.0208
19.4644 5.2132 0.9795
19.6791 5.2404 0.8703
19.8961 5.2872 0.6702
20.1124 5.325 0.512
20.3251 5.3306 0.502
20.5375 5.3329 0.5075
20.7488 5.3275 0.5481
20.9602 5.3228 0.5856
21.1727 5.3265 0.5847
21.3859 5.3356 0.5586
21.5987 5.3414 0.5483
21.8112 5.3445 0.5501
22.0234 5.3463 0.5577
22.2357 5.3488 0.5622
22.4491 5.3578 0.5372
22.6619 5.3628 0.5301
22.8748 5.3687 0.5192
23.0871 5.3707 0.5263
23.2964 5.3553 0.6133
23.5021 5.3198 0.7931
23.7054 5.2722 1.0285
23.9131 5.2512 1.1418
24.1233 5.2445 1.1891
24.3336 5.2389 1.2309
24.5438 5.2327 1.2761
24.7555 5.235 1.2817
24.9683 5.2423 1.2646
25.1812 5.2503 1.2442
25.3946 5.2603 1.2149
25.6081 5.2707 1.1836
25.8223 5.2841 1.1384
26.0404 5.315 1.0129
26.2602 5.3527 0.8562
26.4772 5.3766 0.7626
26.6918 5.3896 0.7196
26.9059 5.4 0.6886
27.1185 5.4038 0.6877
27.3316 5.4096 0.6777
27.5447 5.4154 0.6682
27.7585 5.4238 0.6462
27.9729 5.4348 0.6125
28.186 5.4401 0.6053
28.3987 5.4439 0.6048
28.6112 5.4468 0.6083
28.8247 5.4534 0.5948
29.0377 5.4582 0.5897
29.2489 5.4566 0.614
29.4622 5.4625 0.6042
29.6766 5.4721 0.5769
29.8908 5.4809 0.5538
30.1049 5.4892 0.5327
30.3165 5.4887 0.5521
30.5262 5.482 0.6003
30.7338 5.4684 0.6797
30.9407 5.4528 0.7688
31.1495 5.4438 0.8275
31.3575 5.4329 0.8949
31.5682 5.4304 0.9237
31.7809 5.4348 0.9209
31.9923 5.4348 0.9381
32.206 5.442 0.9225
32.4194 5.4484 0.9104
32.6326 5.4539 0.9027
32.8481 5.4664 0.8629
33.0648 5.4819 0.8092
33.2795 5.4916 0.782
33.4967 5.5081 0.7239
33.7122 5.5197 0.6882
33.9262 5.5268 0.6735
34.1421 5.5391 0.6345
34.3603 5.5576 0.5674
34.58 5.58 0.4822
34.8016 5.6069 0.3765
35.0177 5.6188 0.3396
35.2311 5.6234 0.3366
35.4478 5.6365 0.2944
35.6687 5.6601 0.2037
35.8856 5.6735 0.1603
36.0945 5.6657 0.2137
36.312 5.6803 0.1648
36.5275 5.6895 0.1407
36.7422 5.6965 0.1268
36.9585 5.7075 0.0942
37.1731 5.7142 0.0816
37.3928 5.7331 0.0131
37.6149 5.7577 -0.0816
37.8389 5.7863 -0.1944
8.6291 5.1681 -0.5753
8.844 5.1494 -0.4739
9.0584 5.1346 -0.391
9.2724 5.1239 -0.3266
9.4858 5.1196 -0.2923
9.6986 5.1241 -0.2984
9.9107 5.1411 -0.3627
10.1231 5.1529 -0.4028
10.3362 5.1548 -0.3967
10.5491 5.1589 -0.4013
10.7622 5.1608 -0.3952
10.9754 5.1601 -0.3774
11.1885 5.16 -0.3621
11.4016 5.16 -0.347
11.6147 5.1584 -0.3248
11.8278 5.157 -0.3036
12.0408 5.1567 -0.2874
12.254 5.1463 -0.2243
12.4674 5.1226 -0.0995
12.6807 5.0868 0.0814
12.8938 5.0487 0.2729
13.1065 5.017 0.4351
13.3189 4.9933 0.5601
13.5312 4.9792 0.6402
13.7433 4.9736 0.6815
13.9554 4.9688 0.7185
14.1675 4.9664 0.7449
14.3798 4.9766 0.7126
14.5924 5.0016 0.612
14.8057 5.049 0.4079
15.0192 5.0921 0.2232
15.2319 5.0986 0.2085
15.4442 5.095 0.2406
15.6569 5.1015 0.2256
15.8695 5.1049 0.2252
16.082 5.1058 0.2365
16.2945 5.1085 0.2397
16.507 5.1104 0.2462
16.7196 5.1137 0.2463
16.9321 5.1157 0.2528
17.1443 5.112 0.2853
17.3563 5.1067 0.3252
17.5675 5.0921 0.4085
17.7776 5.0638 0.5551
17.9882 5.0441 0.6622
18.198 5.0181 0.7977
18.4084 5.0002 0.8964
18.6197 4.9941 0.9405
18.8322 5.0026 0.9166
19.0421 4.9833 1.0218
19.2532 4.9776 1.0639
19.4671 4.9988 0.9817
19.682 5.0281 0.8618
19.8984 5.0696 0.686
20.1145 5.106 0.5334
20.3277 5.1155 0.5054
20.5401 5.1184 0.5079
20.752 5.117 0.5301
20.9635 5.1134 0.563
21.176 5.1169 0.5626
21.3893 5.1264 0.5349
21.6017 5.1296 0.5362
21.8136 5.1288 0.5562
22.0258 5.1307 0.5637
22.2383 5.1339 0.5646
22.4515 5.142 0.5434
22.665 5.1515 0.5158
22.8778 5.1571 0.5063
23.0893 5.1539 0.5374
23.2975 5.1325 0.6526
23.5016 5.0878 0.8754
23.7056 5.0452 1.0888
23.914 5.028 1.1844
24.1244 5.0229 1.2244
24.3355 5.0217 1.2464
24.5458 5.0163 1.288
24.7577 5.0196 1.289
24.9705 5.0272 1.2703
25.1833 5.0345 1.2533
25.3957 5.0398 1.2451
25.6092 5.0501 1.2143
25.8249 5.0707 1.1356
26.0435 5.1037 0.9999
26.2636 5.1425 0.8376
26.4801 5.1642 0.7541
26.6942 5.1751 0.7207
26.9081 5.1846 0.6932
27.1212 5.1904 0.6833
27.3344 5.1968 0.6706
27.5468 5.1995 0.675
27.7604 5.2076 0.6548
27.9752 5.2199 0.6148
28.1875 5.222 0.6222
28.4 5.2251 0.6246
28.6131 5.2304 0.6172
28.827 5.2388 0.5953
29.04 5.2438 0.5897
29.251 5.2412 0.6187
29.4646 5.248 0.6044
29.6793 5.2589 0.5712
29.8937 5.2683 0.5449
30.1078 5.2763 0.5251
30.3185 5.273 0.5576
30.5279 5.2652 0.6109
30.735 5.2502 0.6975
30.9405 5.2302 0.8068
31.1493 5.2214 0.8647
31.3592 5.2164 0.9052
31.5701 5.2149 0.9296
31.782 5.2166 0.9388
31.9934 5.2167 0.9557
32.2055 5.2192 0.9619
32.4195 5.2275 0.9411
32.6339 5.2368 0.9159
32.8486 5.2468 0.8871
33.0648 5.2609 0.8395
33.2817 5.2769 0.7835
33.4979 5.2908 0.7369
33.7127 5.3002 0.7115
33.9281 5.3115 0.6772
34.1447 5.3256 0.63
34.3624 5.3428 0.5683
34.5814 5.3632 0.4921
34.8007 5.3839 0.4144
35.0155 5.3922 0.394
35.2305 5.4011 0.371
35.4469 5.4135 0.3317
35.6683 5.4387 0.2339
35.8833 5.4469 0.2138
36.0915 5.4376 0.2747
36.3082 5.4501 0.2351
36.5232 5.4582 0.2159
36.7407 5.4724 0.1685
36.9574 5.4846 0.1304
37.1704 5.4873 0.1361
37.381 5.4844 0.1674
37.5926 5.4838 0.1884
37.8052 5.4857 0.198
38.0235 5.5012 0.1447
38.2388 5.5093 0.1259
38.4654 5.5435 -0.0134
38.6713 5.5298 0.0679
8.6325 4.9495 -0.559
8.8473 4.9311 -0.4588
9.0617 4.9167 -0.3773
9.2755 4.9087 -0.3252
9.4886 4.9084 -0.3094
9.7016 4.9103 -0.3033
9.9138 4.925 -0.3573
10.1262 4.9383 -0.4046
10.3391 4.9428 -0.4108
10.5521 4.9461 -0.411
10.7652 4.9465 -0.3984
10.9784 4.945 -0.3766
11.1915 4.9453 -0.3629
11.4047 4.942 -0.3328
11.6179 4.9368 -0.2936
11.8309 4.9358 -0.2743
12.044 4.9347 -0.254
12.2571 4.9273 -0.2047
12.4704 4.9041 -0.0816
12.6837 4.8672 0.1046
12.8967 4.8292 0.2967
13.1094 4.7995 0.45
13.3218 4.7767 0.5708
13.5341 4.7606 0.661
13.7462 4.7556 0.6993
13.9583 4.753 0.7266
14.1704 4.7484 0.7629
14.3826 4.759 0.7288
14.5952 4.7821 0.6368
14.8084 4.8288 0.4347
15.022 4.8746 0.2373
15.2348 4.8857 0.2011
15.4471 4.8825 0.2314
15.6596 4.8844 0.2375
15.8722 4.8875 0.2387
16.0846 4.8877 0.2532
16.2972 4.8913 0.2521
16.5097 4.894 0.2551
16.7224 4.8982 0.2509
16.9347 4.8981 0.2669
17.1468 4.8935 0.3038
17.3591 4.8928 0.323
17.5704 4.8798 0.3989
17.7806 4.8525 0.5412
17.9914 4.8355 0.6361
18.201 4.8067 0.7852
18.411 4.7851 0.9015
18.6225 4.7815 0.9341
18.8354 4.7933 0.8947
19.0443 4.7635 1.0488
19.2554 4.7581 1.0899
19.4696 4.7828 0.9911
19.6844 4.8118 0.8721
19.9005 4.8499 0.7113
20.1167 4.887 0.555
20.3305 4.9015 0.5034
20.5423 4.8997 0.5281
20.7545 4.9012 0.5368
20.9666 4.9019 0.5496
21.1785 4.9016 0.5673
21.3918 4.9113 0.5383
21.6045 4.9159 0.533
21.8165 4.9161 0.5483
22.0288 4.9186 0.553
22.2411 4.9209 0.5584
22.4541 4.9277 0.5431
22.6675 4.9369 0.517
22.88 4.9401 0.5184
23.0913 4.9364 0.552
23.2993 4.9135 0.6746
23.5022 4.8625 0.9275
23.7067 4.8232 1.1258
23.9151 4.8066 1.2194
24.1248 4.7976 1.2775
24.336 4.7968 1.2979
24.5475 4.7981 1.308
24.7602 4.8054 1.291
24.9728 4.8123 1.2754
25.1846 4.8148 1.2803
25.3963 4.8167 1.288
25.61 4.8282 1.2513
25.827 4.8549 1.1445
26.0464 4.8916 0.991
26.2658 4.9273 0.8424
26.4821 4.9478 0.7642
26.6964 4.9593 0.7274
26.9106 4.9704 0.6928
27.124 4.9777 0.6757
27.3367 4.9819 0.6732
27.5496 4.9867 0.6681
27.7632 4.9944 0.649
27.9764 5.0005 0.6378
28.1887 5.003 0.6434
28.4021 5.0095 0.6303
28.6144 5.012 0.6358
28.8282 5.0198 0.6164
29.0421 5.028 0.5959
29.2531 5.0254 0.6249
29.467 5.0336 0.6043
29.6822 5.0461 0.5636
29.8958 5.053 0.5489
30.1091 5.0582 0.5418
30.3202 5.0561 0.5686
30.5298 5.0495 0.6168
30.7366 5.0333 0.7092
30.9412 5.0104 0.8321
31.1497 5.001 0.8932
31.3601 4.9977 0.9258
31.5717 4.9984 0.94
31.7837 5.0005 0.9478
31.9947 4.9998 0.9686
32.2066 5.0015 0.9781
32.4212 5.0116 0.9488
32.6353 5.0199 0.928
32.8496 5.0287 0.9046
33.0659 5.0433 0.8547
33.2821 5.0572 0.8083
33.4984 5.0714 0.76
33.7145 5.0847 0.7163
33.9302 5.0965 0.6794
34.1467 5.1105 0.6325
34.3639 5.1261 0.578
34.5827 5.146 0.5042
34.8003 5.1622 0.4469
35.0146 5.1692 0.4325
35.2309 5.1815 0.3937
35.4483 5.1965 0.3422
35.6666 5.2138 0.2803
35.8821 5.2235 0.2534
36.0948 5.2256 0.2615
36.3089 5.2317 0.2513
36.5232 5.238 0.2402
36.7399 5.2503 0.2016
36.9554 5.2594 0.1778
37.168 5.2614 0.1868
37.3794 5.2603 0.2098
37.5889 5.2551 0.2523
37.7996 5.2527 0.2815
38.0158 5.2632 0.2513
38.2305 5.2701 0.2378
38.4497 5.2873 0.1765
38.6681 5.3026 0.1241
38.8886 5.3223 0.0514
39.1066 5.3363 0.0054
39.3303 5.3625 -0.0973
39.5574 5.3962 -0.2342
8.421 4.7482 -0.6377
8.6356 4.7348 -0.5605
8.8503 4.7169 -0.4625
9.0647 4.7033 -0.3841
9.2784 4.6958 -0.3343
9.4916 4.6939 -0.3109
9.7045 4.698 -0.3155
9.9167 4.7117 -0.3646
10.1291 4.7242 -0.4086
10.3419 4.7325 -0.4322
10.5548 4.7372 -0.4395
10.7679 4.7374 -0.4258
10.9811 4.7363 -0.4055
11.1943 4.7347 -0.3831
11.4076 4.7286 -0.3401
11.6209 4.722 -0.294
11.8339 4.7204 -0.2718
12.047 4.7167 -0.2392
12.2601 4.7095 -0.1909
12.4734 4.6885 -0.0778
12.6867 4.65 0.1169
12.8997 4.608 0.3283
13.1124 4.5811 0.469
13.3248 4.5595 0.5852
13.537 4.5405 0.689
13.7491 4.5349 0.7303
13.9612 4.5363 0.7388
14.1733 4.5347 0.7615
14.3855 4.5438 0.7341
14.5981 4.569 0.6319
14.8113 4.614 0.437
15.0247 4.6558 0.2573
15.2375 4.6688 0.2119
15.45 4.6679 0.2317
15.6624 4.6674 0.2492
15.8749 4.6702 0.2516
16.0874 4.6727 0.2556
16.2999 4.6738 0.266
16.5123 4.6754 0.2741
16.725 4.68 0.2682
16.9373 4.679 0.2886
17.1496 4.6783 0.3074
17.3619 4.6784 0.3225
17.5733 4.6659 0.3966
17.784 4.6457 0.5063
17.9943 4.6233 0.6264
18.2038 4.5926 0.7855
18.4139 4.5723 0.8958
18.6252 4.5672 0.9355
18.8367 4.5645 0.9635
19.0469 4.549 1.0519
19.2587 4.5505 1.0607
19.4723 4.569 0.9903
19.6867 4.594 0.8895
19.9028 4.6322 0.7278
20.1187 4.6668 0.5823
20.3326 4.6825 0.5253
20.5449 4.6852 0.5288
20.7572 4.6876 0.5339
20.9694 4.6888 0.5443
21.1809 4.6855 0.5756
21.3939 4.6927 0.5581
21.6073 4.703 0.5266
21.8196 4.7052 0.5323
22.0316 4.7056 0.547
22.2441 4.709 0.5473
22.4571 4.7157 0.5323
22.67 4.7216 0.5213
22.882 4.7223 0.5341
23.0932 4.7181 0.5703
23.3015 4.697 0.6848
23.503 4.6384 0.9741
23.7086 4.6054 1.1441
23.9166 4.587 1.2464
24.126 4.5765 1.3115
24.3369 4.5748 1.3359
24.5491 4.5797 1.3299
24.7618 4.5868 1.313
24.9743 4.5934 1.2991
25.1863 4.5971 1.2985
25.3977 4.5978 1.3119
25.612 4.6124 1.2607
25.8294 4.6406 1.1462
26.0494 4.68 0.9796
26.2691 4.7164 0.827
26.4855 4.7378 0.7443
26.6996 4.7483 0.7124
26.9129 4.7555 0.6958
27.1258 4.7604 0.6897
27.3382 4.7634 0.6928
27.5526 4.7749 0.6563
27.7664 4.783 0.6353
27.9786 4.7851 0.6429
28.1907 4.787 0.6511
28.4037 4.7921 0.6444
28.616 4.7943 0.6512
28.8296 4.8018 0.6333
29.0434 4.8098 0.6136
29.2554 4.811 0.6251
29.4694 4.8194 0.6032
29.6845 4.8313 0.565
29.898 4.8377 0.5523
30.1105 4.8404 0.5572
30.3211 4.837 0.5904
30.5294 4.8257 0.6601
30.7369 4.8121 0.7407
30.9438 4.7969 0.8286
31.1523 4.7878 0.8885
31.3619 4.782 0.9326
31.5728 4.7806 0.9569
31.7843 4.7811 0.972
31.9965 4.7838 0.9769
32.2094 4.789 0.9704
32.4234 4.7969 0.951
32.6359 4.8008 0.9508
32.8507 4.8109 0.9214
33.0677 4.8277 0.861
33.2827 4.8381 0.8302
33.4987 4.8516 0.7854
33.7167 4.8702 0.7168
33.933 4.8837 0.6721
34.1488 4.8956 0.6345
34.365 4.9087 0.5914
34.5839 4.9287 0.5167
34.8014 4.9445 0.4613
35.0164 4.9536 0.4369
35.2333 4.9673 0.391
35.4506 4.9822 0.3399
35.667 4.9942 0.3023
35.8824 5.0037 0.2762
36.0967 5.0102 0.2642
36.3106 5.0156 0.2574
36.5247 5.0216 0.2476
36.7401 5.0305 0.2244
36.9533 5.0341 0.2258
37.1646 5.0329 0.2496
37.3765 5.0335 0.265
37.587 5.0306 0.2967
37.7975 5.0277 0.3284
38.0114 5.0331 0.3218
38.2266 5.0413 0.302
38.4446 5.056 0.2523
38.6645 5.0747 0.184
38.886 5.0968 0.1001
39.1057 5.1144 0.0368
39.3251 5.1314 -0.0233
39.5406 5.1393 -0.0417
39.7584 5.1523 -0.0831
39.9883 5.1912 -0.245
8.4242 4.5316 -0.6307
8.6389 4.5171 -0.5483
8.8535 4.5014 -0.4598
9.0677 4.4889 -0.3865
9.2815 4.4798 -0.3292
9.4947 4.4786 -0.3086
9.7074 4.4847 -0.3227
9.9198 4.4969 -0.3652
10.1323 4.5065 -0.3954
10.345 4.5162 -0.4261
10.5579 4.5205 -0.4314
10.7712 4.5182 -0.4055
10.9842 4.5189 -0.3941
11.1974 4.5165 -0.3681
11.4106 4.5131 -0.337
11.6237 4.5119 -0.3166
11.8368 4.5101 -0.293
12.05 4.5027 -0.2431
12.2631 4.4922 -0.1788
12.4764 4.472 -0.0693
12.6897 4.433 0.1288
12.9027 4.3894 0.3481
13.1153 4.3636 0.484
13.3277 4.3398 0.6109
13.5399 4.3205 0.7165
13.752 4.3157 0.7542
13.964 4.3167 0.7649
14.1761 4.3197 0.7658
14.3884 4.3312 0.7273
14.6009 4.3554 0.6293
14.8141 4.3972 0.4488
15.0273 4.4327 0.298
15.2402 4.4486 0.239
15.4527 4.4505 0.2454
15.6652 4.4516 0.2555
15.8777 4.454 0.2601
16.0903 4.4578 0.2575
16.3026 4.4575 0.2748
16.515 4.4585 0.2854
16.7276 4.4617 0.2864
16.94 4.4632 0.2949
17.1525 4.4656 0.299
17.3645 4.4619 0.3321
17.576 4.4505 0.4012
17.787 4.4348 0.4907
17.9972 4.4104 0.6204
18.2067 4.3801 0.7782
18.4165 4.3569 0.9026
18.6277 4.3498 0.9513
18.8389 4.3452 0.989
19.0499 4.3379 1.0387
19.2618 4.3397 1.0465
19.4747 4.352 1.0049
19.6894 4.3797 0.8912
19.9055 4.4181 0.7275
20.1211 4.4501 0.5939
20.3344 4.4614 0.5569
20.547 4.4658 0.5524
20.7598 4.4726 0.5366
20.972 4.4738 0.5473
21.1837 4.4718 0.5731
21.3965 4.4783 0.5588
21.6101 4.4899 0.5208
21.8222 4.4903 0.5353
22.0342 4.4909 0.5484
22.2467 4.4946 0.5475
22.4595 4.5003 0.5374
22.6725 4.5066 0.5242
22.8849 4.5094 0.5274
23.0964 4.5071 0.5546
23.3037 4.4808 0.694
23.5048 4.4203 0.9934
23.7107 4.3891 1.1553
23.9187 4.3705 1.2591
24.128 4.3598 1.3253
24.3379 4.3531 1.3731
24.5502 4.3587 1.3636
24.7628 4.3654 1.349
24.9758 4.3743 1.3239
25.1887 4.3824 1.3029
25.4003 4.3843 1.3105
25.6149 4.4003 1.2529
25.8328 4.4308 1.1272
26.0533 4.4721 0.9508
26.2729 4.508 0.7999
26.4895 4.5301 0.7136
26.7032 4.5388 0.6901
26.9157 4.5424 0.69
27.1275 4.5432 0.7034
27.3408 4.5497 0.69
27.5554 4.5619 0.6499
27.7685 4.5677 0.6401
27.9809 4.5704 0.6444
28.1931 4.5726 0.651
28.4053 4.5747 0.6585
28.6181 4.5789 0.6559
28.8318 4.5866 0.6374
29.0451 4.5929 0.6253
29.2579 4.5968 0.6241
29.4715 4.6039 0.6083
29.6858 4.613 0.5829
29.8997 4.6209 0.5637
30.1136 4.6287 0.5444
30.3231 4.6212 0.5967
30.5282 4.5995 0.7151
30.7364 4.5886 0.7836
30.9461 4.5827 0.8287
31.1546 4.5733 0.8897
31.3639 4.5666 0.9383
31.5736 4.5618 0.9784
31.7832 4.5563 1.0215
31.9964 4.5625 1.01
32.211 4.5726 0.9805
32.4258 4.5834 0.9482
32.6372 4.5837 0.9641
32.8517 4.5931 0.9382
33.069 4.6105 0.8746
33.2841 4.6214 0.8417
33.4999 4.6341 0.7999
33.7187 4.6549 0.7208
33.9358 4.6708 0.6646
34.1511 4.6813 0.6335
34.3668 4.693 0.5972
34.5858 4.7132 0.5209
34.8049 4.7333 0.4453
35.0199 4.7422 0.4215
35.2355 4.7527 0.3909
35.4521 4.7656 0.3486
35.6673 4.7747 0.3242
35.884 4.7875 0.2831
36.0986 4.7948 0.2669
36.3119 4.7986 0.2674
36.5274 4.8081 0.2416
36.7418 4.8147 0.2289
36.9533 4.814 0.2505
37.163 4.8092 0.2909
37.3733 4.8059 0.3244
37.5854 4.8071 0.3374
37.7987 4.8109 0.3376
38.0121 4.815 0.3369
38.2271 4.8228 0.3189
38.4453 4.8379 0.2674
38.6632 4.8521 0.2195
38.8851 4.8749 0.132
39.1051 4.8936 0.0638
39.3236 4.9082 0.0143
39.5409 4.9203 -0.0235
39.7592 4.9343 -0.07
39.9782 4.9497 -0.1231
40.1961 4.9625 -0.1639
40.4149 4.9769 -0.2122
40.6267 4.9767 -0.1924
40.8414 4.9823 -0.1999
41.0655 5.0075 -0.2982
41.2971 5.0479 -0.4674
41.5027 5.0344 -0.3857
8.4274 4.3158 -0.6271
8.6421 4.3 -0.5384
8.8567 4.285 -0.4531
9.0705 4.277 -0.4006
9.2841 4.2722 -0.363
9.4972 4.2716 -0.3454
9.7102 4.2744 -0.3441
9.9227 4.284 -0.3744
10.1355 4.2897 -0.3864
10.3483 4.2955 -0.3991
10.5612 4.3 -0.4053
10.7744 4.2985 -0.3832
10.9874 4.3009 -0.3796
11.2005 4.2996 -0.3584
11.4136 4.299 -0.3405
11.6266 4.2999 -0.3298
11.8397 4.2961 -0.2972
12.0529 4.2903 -0.2547
12.2661 4.2782 -0.1826
12.4794 4.2538 -0.0527
12.6927 4.2134 0.1526
12.9057 4.1719 0.363
13.1183 4.147 0.4952
13.3306 4.1212 0.632
13.5428 4.1021 0.7368
13.7548 4.0973 0.7747
13.9669 4.0959 0.7965
14.179 4.0997 0.7942
14.3912 4.1128 0.7476
14.6037 4.1356 0.6558
14.8168 4.1764 0.4795
15.0301 4.2137 0.3196
15.243 4.2314 0.2516
15.4556 4.237 0.241
15.6682 4.2405 0.2399
15.8806 4.2406 0.2551
16.093 4.2415 0.2664
16.3054 4.243 0.275
16.5179 4.2447 0.2826
16.7302 4.2449 0.297
16.9426 4.2466 0.3051
17.1553 4.2518 0.2962
17.3674 4.249 0.3252
17.5788 4.2364 0.4003
17.7897 4.2197 0.4944
18.0001 4.199 0.6075
18.2098 4.1712 0.7537
18.4192 4.1425 0.9045
18.6295 4.1266 0.9948
18.8406 4.1195 1.0441
19.052 4.1178 1.0683
19.2644 4.1255 1.0478
19.4774 4.1381 1.0049
19.6918 4.1634 0.9018
19.908 4.2023 0.7351
20.1232 4.2311 0.6164
20.336 4.2382 0.5988
20.5486 4.2428 0.5934
20.7618 4.253 0.5618
20.974 4.2549 0.5689
21.186 4.2549 0.5853
21.399 4.2626 0.5653
21.6121 4.2707 0.5436
21.8243 4.2724 0.5517
22.0368 4.2763 0.5498
22.2494 4.2805 0.5466
22.4619 4.2845 0.5445
22.6744 4.2881 0.544
22.8872 4.2935 0.5348
23.0988 4.2918 0.5593
23.3048 4.2579 0.735
23.5056 4.1961 1.0414
23.7116 4.166 1.1991
23.9206 4.1532 1.2755
24.1308 4.1474 1.3195
24.34 4.1367 1.3862
24.5516 4.139 1.392
24.7642 4.146 1.3756
24.9777 4.1578 1.3373
25.1901 4.1633 1.328
25.4021 4.1675 1.3249
25.6166 4.1827 1.2706
25.8352 4.2165 1.1286
26.0563 4.2603 0.9405
26.276 4.2967 0.7866
26.4919 4.3154 0.7159
26.7055 4.324 0.6925
26.9182 4.3283 0.6892
27.1301 4.3292 0.702
27.3439 4.3382 0.6768
27.5581 4.3485 0.6459
27.7704 4.3511 0.6506
27.9834 4.3563 0.6432
28.1957 4.3589 0.6482
28.4078 4.3605 0.6581
28.6215 4.3684 0.638
28.8349 4.3749 0.6251
29.0469 4.3761 0.6367
29.2602 4.3823 0.6249
29.4739 4.3895 0.6083
29.6876 4.3969 0.5908
29.9014 4.4044 0.5732
30.1158 4.4137 0.547
30.3258 4.4081 0.5909
30.5306 4.3855 0.7137
30.7382 4.3727 0.7914
30.9474 4.3652 0.844
31.1554 4.3544 0.9118
31.3651 4.3492 0.9538
31.5748 4.3442 0.9945
31.7841 4.3381 1.0408
31.9981 4.3464 1.0196
32.2109 4.3511 1.0149
32.4263 4.3638 0.9735
32.6394 4.3692 0.966
32.8534 4.3774 0.9453
33.0698 4.3921 0.894
33.2851 4.4036 0.858
33.5016 4.4183 0.8074
33.7202 4.4385 0.7304
33.9384 4.4575 0.6596
34.1536 4.4677 0.6295
34.3696 4.48 0.5901
34.5879 4.4985 0.5218
34.8074 4.5195 0.4414
35.0234 4.5312 0.4047
35.2387 4.5406 0.3787
35.4542 4.5508 0.349
35.6687 4.5579 0.3338
35.8852 4.5703 0.2943
36.0991 4.5759 0.2864
36.3138 4.5832 0.2701
36.5297 4.5937 0.2396
36.7425 4.5962 0.2462
36.9526 4.5924 0.282
37.1617 4.5862 0.3292
37.3712 4.5811 0.3715
37.5844 4.5847 0.3728
37.7999 4.5941 0.3474
38.0126 4.5966 0.3542
38.2271 4.6033 0.3411
38.4463 4.6205 0.2791
38.6611 4.6277 0.2643
38.883 4.6508 0.175
39.1051 4.6738 0.0859
39.3228 4.687 0.043
39.5437 4.7067 -0.0305
39.7621 4.7209 -0.0781
39.9801 4.7342 -0.1214
40.1954 4.7414 -0.1366
40.411 4.7492 -0.1543
40.6249 4.7532 -0.1541
40.841 4.762 -0.1764
41.0596 4.7757 -0.2215
41.2785 4.79 -0.2695
41.4939 4.7968 -0.2823
41.7088 4.8027 -0.2908
41.9278 4.8167 -0.3373
42.1399 4.8169 -0.3192
42.3558 4.8246 -0.3362
8.4304 4.1021 -0.6336
8.6452 4.0848 -0.5371
8.8598 4.0692 -0.4489
9.0735 4.0627 -0.4032
9.2871 4.058 -0.3661
9.5003 4.057 -0.3468
9.7128 4.0653 -0.3712
9.9253 4.0757 -0.4053
10.1383 4.0783 -0.4029
10.3513 4.0804 -0.3979
10.5642 4.0845 -0.4022
10.7774 4.0834 -0.3824
10.9904 4.0857 -0.3782
11.2034 4.0867 -0.3677
11.4166 4.0844 -0.3417
11.6297 4.0818 -0.3144
11.8428 4.0775 -0.2791
12.0559 4.0735 -0.2452
12.2691 4.0599 -0.1659
12.4825 4.0318 -0.0179
12.6957 3.9931 0.1799
12.9086 3.9556 0.3724
13.1212 3.9273 0.5215
13.3335 3.9031 0.6508
13.5457 3.8841 0.7556
13.7577 3.8806 0.7877
13.9698 3.88 0.8056
14.1818 3.8805 0.819
14.394 3.8935 0.7727
14.6065 3.9202 0.6623
14.8196 3.9578 0.5
15.0329 3.9968 0.3316
15.2458 4.0153 0.2596
15.4584 4.0205 0.2508
15.6708 4.0213 0.2624
15.8832 4.0222 0.274
16.0957 4.0235 0.2831
16.308 4.0243 0.2951
16.5204 4.0254 0.3056
16.7326 4.0237 0.3294
16.9451 4.0267 0.3309
17.1578 4.0338 0.3132
17.3701 4.034 0.3279
17.5815 4.0217 0.402
17.7923 4.0033 0.5045
18.0027 3.9824 0.6189
18.2123 3.9531 0.7727
18.4215 3.9236 0.9281
18.6314 3.9032 1.0398
18.8417 3.8893 1.1217
19.0535 3.8913 1.1282
19.2667 3.9074 1.0682
19.4798 3.9214 1.018
19.6944 3.9478 0.9096
19.9105 3.9868 0.7421
20.1254 4.0122 0.6385
20.3382 4.0198 0.6186
20.551 4.0266 0.603
20.7639 4.0341 0.5836
20.9757 4.0333 0.6035
21.188 4.0361 0.6067
21.4012 4.0457 0.578
21.6141 4.0523 0.5631
21.826 4.0518 0.5817
22.039 4.0593 0.5629
22.2519 4.066 0.5475
22.4644 4.0693 0.5483
22.6769 4.0731 0.547
22.8896 4.0781 0.5402
23.1005 4.0722 0.5843
23.3049 4.0296 0.8012
23.5059 3.9694 1.1015
23.712 3.9403 1.255
23.9211 3.9285 1.3271
24.1317 3.9253 1.3587
24.342 3.9203 1.3989
24.5531 3.9204 1.4152
24.7657 3.9276 1.3978
24.9785 3.9354 1.3778
25.1908 3.941 1.3684
25.4029 3.9456 1.3634
25.6161 3.9553 1.3349
25.8339 3.9855 1.2093
26.0559 4.0334 1.001
26.2771 4.0765 0.8149
26.4935 4.0975 0.733
26.7079 4.1096 0.6934
26.9207 4.1144 0.6875
27.1327 4.1158 0.6981
27.3467 4.1253 0.6706
27.5599 4.1317 0.6574
27.7722 4.1344 0.6619
27.9848 4.1381 0.6618
28.1969 4.14 0.6701
28.4098 4.1446 0.6657
28.6237 4.1532 0.6424
28.8367 4.1585 0.6347
29.0486 4.1593 0.6482
29.2621 4.166 0.6339
29.4762 4.1749 0.6095
29.6899 4.1822 0.5927
29.904 4.1908 0.5697
30.1181 4.199 0.5485
30.3279 4.1928 0.5949
30.534 4.1744 0.6987
30.7407 4.1588 0.7898
30.9491 4.1489 0.8538
31.1563 4.1354 0.9344
31.3658 4.13 0.9776
31.5757 4.1256 1.0158
31.7871 4.126 1.0315
32.0011 4.1346 1.0088
32.2129 4.1364 1.0179
32.4267 4.1439 1.0005
32.641 4.1532 0.9747
32.856 4.164 0.9414
33.072 4.1778 0.8947
33.2879 4.1909 0.8511
33.5046 4.2061 0.7972
33.7233 4.2266 0.719
33.9412 4.2445 0.6527
34.1557 4.253 0.6309
34.3734 4.2698 0.5701
34.5923 4.2896 0.495
34.8099 4.3057 0.4374
35.0275 4.3215 0.3815
35.2432 4.3321 0.35
35.4565 4.3362 0.3486
35.6696 4.3401 0.3486
35.8855 4.3507 0.3171
36.0995 4.3566 0.3073
36.3153 4.367 0.2771
36.5315 4.3779 0.2442
36.7454 4.3832 0.2376
36.9533 4.374 0.2991
37.1616 4.3662 0.354
37.3718 4.3627 0.3888
37.5848 4.3661 0.3913
37.7996 4.3735 0.3746
38.012 4.3756 0.3832
38.226 4.3811 0.3763
38.4446 4.3972 0.3191
38.662 4.4102 0.2767
38.8832 4.4316 0.1947
39.1056 4.4553 0.1024
39.3227 4.4671 0.0658
39.5448 4.4896 -0.0209
39.7654 4.5085 -0.091
39.9813 4.5173 -0.1133
40.197 4.5252 -0.1315
40.4119 4.5315 -0.1422
40.6253 4.5347 -0.1386
40.841 4.5425 -0.1566
41.0587 4.5545 -0.1935
41.2769 4.5672 -0.2345
41.4924 4.5745 -0.2498
41.7062 4.578 -0.2472
41.9197 4.5813 -0.2434
42.1342 4.5862 -0.2478
42.3492 4.5922 -0.2569
42.5683 4.6061 -0.3027
42.7824 4.6102 -0.3028
43.0099 4.6402 -0.424
43.2233 4.6427 -0.4169
43.4497 4.6699 -0.525
8.4336 3.8855 -0.6263
8.6487 3.8652 -0.5154
8.8633 3.8492 -0.4245
9.077 3.8423 -0.3771
9.2905 3.8385 -0.344
9.5035 3.8403 -0.3378
9.7157 3.8532 -0.3844
9.9282 3.864 -0.4205
10.141 3.8687 -0.4278
10.3539 3.8739 -0.4378
10.567 3.8745 -0.4256
10.7804 3.8696 -0.3871
10.9935 3.8684 -0.3665
11.2065 3.8703 -0.3604
11.4197 3.8666 -0.3276
11.6328 3.8646 -0.3034
11.8458 3.8617 -0.2741
12.059 3.8537 -0.2213
12.2723 3.8361 -0.1228
12.4855 3.8107 0.0128
12.6987 3.776 0.1927
12.9116 3.738 0.3882
13.1242 3.7077 0.5469
13.3365 3.6865 0.663
13.5486 3.6697 0.7578
13.7606 3.6625 0.8072
13.9726 3.6622 0.8242
14.1846 3.6617 0.8418
14.3968 3.6745 0.7966
14.6093 3.7009 0.6869
14.8222 3.7337 0.5469
15.0354 3.7724 0.379
15.2485 3.7959 0.2833
15.461 3.8006 0.2768
15.6734 3.7997 0.2966
15.8859 3.8034 0.2948
16.0982 3.8033 0.3105
16.3106 3.8044 0.3214
16.5228 3.8037 0.3403
16.735 3.8015 0.3665
16.9476 3.8077 0.3528
17.1604 3.8163 0.328
17.3728 3.8183 0.3342
17.5844 3.809 0.3941
17.7951 3.7896 0.5019
18.005 3.7627 0.645
18.2142 3.73 0.8156
18.4235 3.7012 0.9679
18.6335 3.683 1.0702
18.844 3.6708 1.1441
19.0557 3.6726 1.1512
19.2687 3.6866 1.1011
19.482 3.7027 1.0412
19.6972 3.7347 0.9055
19.9131 3.7714 0.748
20.1277 3.7952 0.6519
20.341 3.8065 0.6146
20.5537 3.8128 0.6009
20.7663 3.8178 0.5933
20.9783 3.819 0.6041
21.1908 3.8229 0.6018
21.4033 3.8275 0.5966
21.6159 3.8325 0.5892
21.8285 3.837 0.5846
22.0417 3.8457 0.5595
22.2548 3.8531 0.5412
22.4672 3.8563 0.5425
22.6798 3.8609 0.5374
22.8925 3.8652 0.5336
23.1027 3.8557 0.5947
23.3073 3.8146 0.8059
23.5088 3.7575 1.0923
23.714 3.7237 1.2686
23.9223 3.7077 1.3609
24.133 3.7047 1.3917
24.3439 3.7038 1.4126
24.5548 3.7022 1.4369
24.7668 3.7069 1.4313
24.979 3.7121 1.4237
25.1919 3.7204 1.401
25.4033 3.7221 1.41
25.6156 3.7276 1.4006
25.8321 3.752 1.3023
26.0533 3.7969 1.1072
26.2763 3.8482 0.8818
26.495 3.8792 0.7526
26.7096 3.8921 0.7087
26.9232 3.9003 0.6868
27.1351 3.9015 0.6986
27.3483 3.9077 0.6861
27.5615 3.9139 0.6741
27.7751 3.922 0.653
27.9877 3.9256 0.6532
28.1983 3.9215 0.6896
28.4114 3.9275 0.6787
28.6255 3.9365 0.6533
28.8392 3.9444 0.6337
29.0515 3.9468 0.6395
29.2637 3.9489 0.6469
29.4774 3.9566 0.6283
29.6916 3.9653 0.6043
29.9057 3.9742 0.5801
30.1192 3.9805 0.5675
30.3292 3.9748 0.6121
30.5362 3.9598 0.7003
30.7423 3.9421 0.8015
30.95 3.9303 0.8748
31.1588 3.9221 0.9307
31.3678 3.9149 0.9824
31.5735 3.8975 1.082
31.7855 3.9002 1.0868
32.0008 3.9128 1.0452
32.2145 3.9203 1.0275
32.4277 3.9262 1.0176
32.6415 3.9337 1
32.8579 3.9488 0.9465
33.0759 3.9684 0.8719
33.293 3.9848 0.8126
33.5091 3.9981 0.7677
33.7288 4.0215 0.6756
33.9453 4.0354 0.6281
34.1582 4.0393 0.6274
34.3778 4.0613 0.5421
34.5981 4.0849 0.4488
34.8146 4.0977 0.4064
35.0312 4.1108 0.3628
35.246 4.119 0.3424
35.4596 4.124 0.337
35.6723 4.1265 0.3433
35.8858 4.1314 0.3389
36.1011 4.1405 0.3141
36.3185 4.1546 0.2659
36.5351 4.1668 0.2267
36.7482 4.17 0.2299
36.9544 4.1568 0.3106
37.1623 4.1481 0.3701
37.373 4.146 0.3984
37.5854 4.1478 0.408
37.8001 4.1551 0.392
38.0131 4.1586 0.3944
38.2259 4.1614 0.3997
38.4433 4.1748 0.3552
38.6631 4.1931 0.2875
38.8848 4.2157 0.1996
39.1045 4.2334 0.1351
39.3241 4.2506 0.0728
39.5457 4.272 -0.0088
39.7652 4.2886 -0.0683
39.9786 4.292 -0.0655
40.195 4.3016 -0.092
40.4114 4.311 -0.1173
40.6252 4.315 -0.1176
40.8409 4.323 -0.136
41.0579 4.3335 -0.1665
41.2754 4.3449 -0.2014
41.4925 4.3554 -0.2317
41.7066 4.3597 -0.2329
41.9202 4.3629 -0.2291
42.135 4.3685 -0.2363
42.35 4.3745 -0.2454
42.566 4.3826 -0.2644
42.7786 4.3838 -0.251
42.9924 4.3873 -0.2481
43.2072 4.3929 -0.2553
43.4257 4.4052 -0.294
43.6489 4.4265 -0.3749
43.8738 4.4504 -0.4681
44.0985 4.474 -0.5593
8.4373 3.664 -0.5952
8.6523 3.6448 -0.4893
8.8667 3.6305 -0.406
9.0805 3.6225 -0.3534
9.2939 3.619 -0.3216
9.5067 3.6235 -0.3283
9.7187 3.6389 -0.3865
9.9311 3.651 -0.4296
10.1439 3.6568 -0.4419
10.3567 3.6621 -0.4523
10.5699 3.6614 -0.4338
10.7833 3.6554 -0.3905
10.9966 3.6527 -0.3625
11.2095 3.6544 -0.3555
11.4227 3.6515 -0.3266
11.6358 3.6491 -0.2999
11.8488 3.646 -0.2701
12.0621 3.6336 -0.1956
12.2754 3.6147 -0.0906
12.4885 3.5935 0.0259
12.7016 3.5622 0.1898
12.9145 3.5226 0.3935
13.1271 3.4929 0.5504
13.3394 3.4727 0.6619
13.5515 3.4561 0.756
13.7635 3.4432 0.8327
13.9754 3.443 0.8493
14.1875 3.4471 0.845
14.3996 3.4574 0.8117
14.612 3.4798 0.7203
14.8248 3.5109 0.5883
15.038 3.5484 0.4254
15.2512 3.5762 0.3085
15.4637 3.5815 0.2991
15.676 3.5806 0.3192
15.8885 3.585 0.3138
16.1009 3.5867 0.3215
16.3133 3.5881 0.3307
16.5254 3.5846 0.3627
16.7375 3.5827 0.3879
16.9501 3.5888 0.3746
17.163 3.5979 0.3472
17.3755 3.602 0.3436
17.5873 3.5963 0.3867
17.7979 3.5758 0.4997
18.0076 3.5465 0.6548
18.2169 3.5152 0.8198
18.4259 3.4829 0.989
18.6359 3.4648 1.091
18.8467 3.4569 1.1448
19.0579 3.4538 1.1757
19.2705 3.4644 1.141
19.4839 3.4814 1.0765
19.6993 3.5156 0.9301
19.9156 3.5563 0.7534
20.1305 3.5815 0.6495
20.344 3.5949 0.6022
20.5562 3.5971 0.6079
20.7686 3.601 0.606
20.9813 3.6067 0.5953
21.1938 3.6111 0.5905
21.4059 3.613 0.5981
21.6181 3.6152 0.6038
21.8307 3.6198 0.5986
22.044 3.6293 0.5699
22.2574 3.6391 0.5398
22.4699 3.6429 0.5385
22.6825 3.647 0.5355
22.8953 3.6524 0.5267
23.106 3.6455 0.576
23.3119 3.6119 0.752
23.5133 3.5544 1.0411
23.7172 3.5134 1.2527
23.9251 3.495 1.3565
24.135 3.4887 1.4033
24.3463 3.4892 1.4173
24.5569 3.4867 1.446
24.7684 3.4886 1.4538
24.9811 3.4967 1.4324
25.1936 3.5031 1.4189
25.4046 3.5026 1.4381
25.6162 3.5053 1.442
25.8318 3.5255 1.3631
26.0508 3.5608 1.2128
26.2742 3.6139 0.9779
26.495 3.6546 0.8023
26.7102 3.6696 0.7478
26.9248 3.6825 0.7039
27.1375 3.6869 0.7001
27.3509 3.6942 0.683
27.5646 3.7025 0.6609
27.7788 3.7124 0.6309
27.9916 3.7169 0.6267
28.2019 3.7121 0.667
28.4148 3.7169 0.6614
28.628 3.7228 0.6508
28.8421 3.732 0.6247
29.0544 3.7345 0.6301
29.2661 3.7348 0.6462
29.4795 3.7413 0.633
29.6939 3.7511 0.604
29.9078 3.7589 0.5845
30.1207 3.7631 0.5823
30.331 3.7589 0.6193
30.5388 3.7465 0.6959
30.7445 3.7275 0.803
30.9521 3.7152 0.8789
31.1637 3.7163 0.8916
31.3711 3.7037 0.9688
31.5683 3.6602 1.1925
31.784 3.6745 1.1426
32.0026 3.6973 1.0523
32.2162 3.7045 1.0358
32.4292 3.7098 1.0288
32.642 3.7145 1.0242
32.8594 3.7324 0.9572
33.0791 3.7568 0.86
33.2971 3.7757 0.7882
33.5138 3.7908 0.735
33.7316 3.8086 0.6684
33.946 3.8167 0.6481
34.1614 3.8276 0.6146
34.383 3.8549 0.5035
34.603 3.8772 0.4162
34.8191 3.8891 0.3781
35.0334 3.8961 0.3632
35.2464 3.8998 0.3641
35.4616 3.9087 0.3399
35.675 3.9134 0.336
35.8873 3.9151 0.3465
36.1026 3.9241 0.3221
36.32 3.9383 0.2734
36.5366 3.9504 0.2344
36.7485 3.9509 0.2504
36.9541 3.9362 0.3384
37.1615 3.9262 0.4039
37.373 3.9263 0.4222
