17.6814 -50.8397 6.2881
17.7858 -50.8381 6.2217
17.89 -50.8365 6.173
17.9936 -50.8351 6.1481
18.0972 -50.8337 6.1301
18.2008 -50.8323 6.108
18.3045 -50.8309 6.0872
18.4082 -50.8295 6.0661
18.5119 -50.8281 6.0409
18.616 -50.8266 6.006
18.7204 -50.825 5.9566
18.8248 -50.8235 5.9077
18.9287 -50.822 5.8802
19.0321 -50.8207 5.8768
19.1353 -50.8195 5.8795
19.2389 -50.8181 5.8689
19.3429 -50.8167 5.8414
19.4473 -50.8152 5.8
19.5522 -50.8136 5.7422
19.6573 -50.8119 5.6784
19.7618 -50.8104 5.6376
19.8656 -50.809 5.6239
19.9695 -50.8076 5.6037
20.0741 -50.8061 5.5644
20.1787 -50.8046 5.5224
20.2833 -50.8031 5.4846
20.3891 -50.8013 5.4067
-15.2931 -51.3421 5.4552
-15.1584 -51.3421 5.747
-15.0293 -51.3418 5.9889
-14.9105 -51.3411 6.1347
-14.797 -51.3403 6.232
-14.6865 -51.3393 6.3013
-14.5781 -51.3382 6.3502
-14.4702 -51.3372 6.395
-14.3622 -51.3361 6.4424
-14.2546 -51.335 6.4844
-14.1487 -51.3339 6.5114
-14.0438 -51.3327 6.5291
-13.9385 -51.3315 6.5503
-13.8321 -51.3304 6.5821
-13.7256 -51.3293 6.6162
-13.6203 -51.3281 6.6381
-13.516 -51.3269 6.6502
-13.4118 -51.3257 6.6619
-13.3075 -51.3245 6.6745
-13.2033 -51.3232 6.6859
-13.0997 -51.322 6.6908
-12.9972 -51.3207 6.6855
-12.895 -51.3194 6.6772
-12.7929 -51.3181 6.6674
-12.6909 -51.3168 6.6566
-12.5879 -51.3156 6.6564
-12.4838 -51.3144 6.6668
-12.3804 -51.3131 6.6703
-12.2789 -51.3118 6.6546
-12.1786 -51.3104 6.6255
-12.0776 -51.309 6.6047
-11.9746 -51.3078 6.6041
-11.8706 -51.3066 6.6131
-11.7662 -51.3054 6.6275
-11.6611 -51.3042 6.65
-11.5555 -51.3031 6.6778
-11.45 -51.3019 6.7043
-11.3451 -51.3007 6.7242
-11.2409 -51.2995 6.7371
-11.1369 -51.2983 6.7485
-11.0327 -51.2971 6.7618
-10.9289 -51.2959 6.771
-10.8261 -51.2946 6.7688
-10.7237 -51.2934 6.7621
-10.6201 -51.2921 6.7688
-10.5152 -51.291 6.7904
-10.4109 -51.2898 6.8061
-10.3087 -51.2885 6.7974
-10.2077 -51.2871 6.7752
-10.1059 -51.2858 6.7613
-10.0026 -51.2845 6.7648
-9.8982 -51.2834 6.7819
-9.7934 -51.2822 6.8034
-9.6891 -51.281 6.8183
-9.5859 -51.2798 6.8218
-9.4829 -51.2785 6.8228
-9.3788 -51.2773 6.8357
-9.2733 -51.2762 6.8665
-9.167 -51.2751 6.9064
-9.0613 -51.274 6.941
-8.9564 -51.2729 6.9648
-8.8518 -51.2717 6.9849
-8.7475 -51.2705 7.0034
-8.6438 -51.2693 7.0136
-8.5407 -51.268 7.0167
-8.4371 -51.2668 7.0258
-8.3324 -51.2657 7.048
-8.2276 -51.2645 7.0732
-8.1235 -51.2633 7.089
-8.0198 -51.2621 7.1002
-7.9155 -51.261 7.1183
-7.8115 -51.2598 7.134
-7.709 -51.2585 7.1295
-7.6074 -51.2572 7.1152
-7.505 -51.2559 7.1099
-7.4017 -51.2547 7.1158
-7.2976 -51.2535 7.1329
-7.193 -51.2523 7.157
-7.0895 -51.2511 7.1659
-6.9884 -51.2498 7.1436
-6.8888 -51.2483 7.1011
-6.7895 -51.2469 7.0554
-6.6891 -51.2455 7.0227
-6.5871 -51.2441 7.0113
-6.4841 -51.2429 7.0129
-6.3813 -51.2416 7.0129
-6.2791 -51.2403 7.004
-6.1773 -51.239 6.9906
-6.0749 -51.2377 6.9837
-5.9713 -51.2365 6.9941
-5.8668 -51.2354 7.0179
-5.7623 -51.2342 7.0423
-5.6584 -51.233 7.0571
-5.556 -51.2318 7.0522
-5.4548 -51.2304 7.0283
-5.354 -51.229 6.9997
-5.2526 -51.2277 6.979
-5.1502 -51.2264 6.973
-5.0465 -51.2252 6.985
-4.9418 -51.224 7.013
-4.8368 -51.2229 7.0454
-4.7331 -51.2217 7.0591
-4.6316 -51.2204 7.0395
-4.5313 -51.219 7.0025
-4.4303 -51.2176 6.9738
-4.3279 -51.2163 6.9674
-4.2242 -51.2151 6.9811
-4.1199 -51.214 7.0046
-4.0155 -51.2128 7.0286
-3.9112 -51.2117 7.0527
-3.8063 -51.2106 7.0866
-3.7003 -51.2095 7.1376
-3.5938 -51.2086 7.1969
-3.4883 -51.2075 7.2427
-3.3842 -51.2064 7.2654
-3.2807 -51.2052 7.2784
-3.178 -51.2039 7.2777
-3.0766 -51.2026 7.2565
-2.9747 -51.2012 7.2425
-2.8713 -51.2 7.2556
-2.7669 -51.1989 7.2837
-2.6629 -51.1978 7.306
-2.56 -51.1965 7.3105
-2.4582 -51.1952 7.2951
-2.3571 -51.1938 7.2678
-2.2558 -51.1925 7.2434
-2.1537 -51.1911 7.2321
-2.0505 -51.1899 7.2418
-1.946 -51.1888 7.2741
-1.8415 -51.1877 7.3065
-1.7382 -51.1865 7.3179
-1.6358 -51.1852 7.3134
-1.5332 -51.184 7.3113
-1.4302 -51.1828 7.3169
-1.3275 -51.1815 7.3182
-1.2254 -51.1802 7.3087
-1.1232 -51.1789 7.2998
-1.0204 -51.1777 7.3009
-0.9176 -51.1764 7.305
-0.8149 -51.1752 7.3056
-0.7121 -51.1739 7.3081
-0.6094 -51.1727 7.3081
-0.5077 -51.1713 7.2893
-0.4067 -51.1699 7.2563
-0.3051 -51.1686 7.2349
-0.2024 -51.1673 7.2339
-0.0996 -51.166 7.238
0.003 -51.1648 7.2346
0.1054 -51.1635 7.2292
0.2081 -51.1622 7.2297
0.311 -51.161 7.2334
0.4137 -51.1598 7.2355
0.5164 -51.1585 7.2347
0.6188 -51.1572 7.2297
0.7211 -51.1559 7.22
0.8233 -51.1546 7.2096
0.9257 -51.1533 7.2041
1.0284 -51.1521 7.2045
1.1312 -51.1508 7.2065
1.2338 -51.1496 7.2036
1.3361 -51.1483 7.194
1.4382 -51.1469 7.1818
1.5405 -51.1456 7.1718
1.643 -51.1444 7.1679
1.7459 -51.1431 7.1711
1.8488 -51.1419 7.176
1.9516 -51.1406 7.1781
2.0543 -51.1394 7.1794
2.1572 -51.1381 7.1843
2.2602 -51.1369 7.1918
2.363 -51.1357 7.1957
2.4658 -51.1344 7.1966
2.5686 -51.1332 7.2007
2.6715 -51.132 7.2057
2.7742 -51.1307 7.2055
2.8767 -51.1294 7.2024
2.9795 -51.1282 7.2056
3.0827 -51.127 7.2194
3.1859 -51.1258 7.2328
3.2884 -51.1246 7.2299
3.3906 -51.1232 7.216
3.4928 -51.1219 7.2019
3.595 -51.1206 7.189
3.6974 -51.1193 7.1808
3.8003 -51.118 7.1844
3.9033 -51.1168 7.1957
4.0063 -51.1156 7.2036
4.1089 -51.1144 7.2029
4.2114 -51.1131 7.1952
4.3137 -51.1118 7.1855
4.4162 -51.1105 7.1795
4.519 -51.1092 7.1813
4.622 -51.108 7.193
4.7251 -51.1068 7.2071
4.8279 -51.1056 7.2102
4.9305 -51.1043 7.207
5.0334 -51.1031 7.2163
5.1365 -51.1019 7.2299
5.2392 -51.1007 7.231
5.3415 -51.0994 7.2197
5.4438 -51.098 7.2031
5.5461 -51.0967 7.1906
5.6489 -51.0955 7.1946
5.7521 -51.0943 7.216
5.8554 -51.0932 7.2411
5.9585 -51.092 7.2576
6.0614 -51.0908 7.2669
6.1642 -51.0896 7.273
6.2668 -51.0883 7.269
6.3689 -51.0869 7.2486
6.4708 -51.0855 7.2154
6.5726 -51.0841 7.1786
6.6746 -51.0826 7.1492
6.777 -51.0813 7.1341
6.8795 -51.08 7.1264
6.9819 -51.0787 7.1126
7.0841 -51.0773 7.0867
7.1862 -51.0759 7.0551
7.2884 -51.0745 7.0289
7.3909 -51.0732 7.0168
7.4937 -51.0719 7.0203
7.5967 -51.0707 7.0329
7.6997 -51.0695 7.0442
7.8025 -51.0683 7.0475
7.9052 -51.067 7.0476
8.008 -51.0658 7.0497
8.1106 -51.0645 7.0435
8.2129 -51.0631 7.0196
8.3153 -51.0617 6.9939
8.4179 -51.0604 6.9876
8.5208 -51.0592 6.9924
8.6236 -51.0579 6.994
8.7264 -51.0567 6.9974
8.8294 -51.0555 7.0135
8.9325 -51.0544 7.0398
9.0355 -51.0532 7.0609
9.1383 -51.052 7.0636
9.2408 -51.0506 7.0458
9.3432 -51.0492 7.0202
9.4457 -51.0479 6.9998
9.5484 -51.0466 6.9881
9.651 -51.0452 6.9803
9.7538 -51.044 6.9765
9.8566 -51.0427 6.9842
9.9596 -51.0416 7.0048
10.0626 -51.0405 7.0297
10.1655 -51.0393 7.0508
10.2684 -51.0381 7.0649
10.3712 -51.0369 7.0687
10.4738 -51.0356 7.0596
10.5765 -51.0343 7.045
10.6792 -51.0329 7.0357
10.7819 -51.0317 7.0347
10.8847 -51.0304 7.0404
10.9875 -51.0292 7.0492
11.0903 -51.028 7.0561
11.1931 -51.0268 7.0605
11.2958 -51.0255 7.0657
11.3986 -51.0243 7.0713
11.5013 -51.0231 7.0749
11.6041 -51.0218 7.0701
11.7068 -51.0204 7.0539
11.8095 -51.0191 7.0391
11.9122 -51.0178 7.0407
12.015 -51.0166 7.0545
12.1178 -51.0154 7.0604
12.2205 -51.0141 7.041
12.3232 -51.0126 6.9993
12.426 -51.0111 6.958
12.5288 -51.0097 6.9385
12.6316 -51.0084 6.9339
12.7344 -51.0072 6.9317
12.8372 -51.0059 6.9309
12.94 -51.0046 6.9316
13.0428 -51.0034 6.9335
13.1456 -51.0021 6.934
13.2484 -51.0008 6.9304
13.3512 -50.9995 6.9259
13.454 -50.9983 6.9274
13.5568 -50.9971 6.9386
13.6595 -50.9959 6.9534
13.7623 -50.9947 6.9564
13.8652 -50.9933 6.9421
13.9681 -50.9919 6.9207
14.071 -50.9906 6.9067
14.1739 -50.9893 6.9039
14.2767 -50.9881 6.9034
14.3796 -50.9868 6.8995
14.4824 -50.9855 6.8933
14.5854 -50.9842 6.8821
14.6884 -50.9828 6.8622
14.7913 -50.9814 6.8452
14.8942 -50.9801 6.841
14.9971 -50.9789 6.8435
15.0999 -50.9776 6.8446
15.2028 -50.9764 6.8452
15.3056 -50.9751 6.8448
15.4086 -50.9738 6.8373
15.5117 -50.9724 6.8179
15.6149 -50.971 6.7901
15.7181 -50.9696 6.7639
15.8212 -50.9682 6.7467
15.9242 -50.9669 6.7389
16.0271 -50.9657 6.7368
16.1301 -50.9644 6.7339
16.233 -50.9631 6.7315
16.3359 -50.9618 6.7343
16.4388 -50.9606 6.7343
16.542 -50.9592 6.7169
16.6455 -50.9578 6.6809
16.749 -50.9563 6.6425
16.8524 -50.9549 6.6195
16.9554 -50.9536 6.6136
17.0585 -50.9523 6.6107
17.1616 -50.951 6.6019
17.2648 -50.9496 6.5863
17.3682 -50.9482 6.5648
17.4718 -50.9468 6.5318
17.5758 -50.9452 6.482
17.6801 -50.9436 6.4171
17.7845 -50.942 6.3503
17.8886 -50.9404 6.3025
17.9922 -50.939 6.2787
18.0957 -50.9376 6.2604
18.1993 -50.9363 6.2389
18.3028 -50.9349 6.221
18.4062 -50.9335 6.2079
18.5098 -50.9322 6.1905
18.6136 -50.9307 6.1625
18.7178 -50.9292 6.1196
18.8221 -50.9277 6.0705
18.9263 -50.9262 6.0336
19.0298 -50.9249 6.0202
19.1331 -50.9236 6.0191
19.2366 -50.9222 6.0082
19.3407 -50.9208 5.9755
19.4453 -50.9192 5.9222
19.5504 -50.9176 5.8561
19.6554 -50.9159 5.7939
19.7598 -50.9144 5.7533
19.8638 -50.913 5.7304
19.9679 -50.9116 5.7063
20.0721 -50.9102 5.6752
20.1765 -50.9087 5.6412
20.2811 -50.9072 5.6004
20.3864 -50.9056 5.5392
20.4924 -50.9038 5.4536
20.5974 -50.9022 5.4053
20.7015 -50.9008 5.3844
20.8042 -50.8997 5.4114
20.9108 -50.8979 5.3153
-15.4046 -51.4465 5.3682
-15.2699 -51.4463 5.6591
-15.1418 -51.4459 5.8906
-15.0183 -51.4453 6.0793
-14.901 -51.4446 6.2117
-14.7888 -51.4436 6.2973
-14.6799 -51.4426 6.3508
-14.5728 -51.4414 6.3885
-14.4655 -51.4403 6.428
-14.3577 -51.4392 6.4728
-14.2506 -51.4381 6.5108
-14.1452 -51.4369 6.5331
-14.0405 -51.4357 6.5477
-13.9355 -51.4345 6.5662
-13.8299 -51.4334 6.5908
-13.7243 -51.4322 6.6156
-13.6195 -51.431 6.6326
-13.5156 -51.4298 6.6407
-13.4119 -51.4285 6.6472
-13.3076 -51.4273 6.6598
-13.2025 -51.4262 6.68
-13.0978 -51.425 6.6972
-12.9946 -51.4237 6.6988
-12.8925 -51.4224 6.6892
-12.7908 -51.4211 6.6757
-12.6885 -51.4198 6.6673
-12.5848 -51.4186 6.674
-12.4808 -51.4174 6.6845
-12.3784 -51.4161 6.6779
-12.2777 -51.4147 6.6532
-12.177 -51.4134 6.6286
-12.0745 -51.4121 6.6229
-11.9703 -51.4109 6.6352
-11.8658 -51.4097 6.6506
-11.7616 -51.4084 6.6624
-11.6574 -51.4072 6.6756
-11.5525 -51.4061 6.6957
-11.4472 -51.4049 6.7203
-11.3422 -51.4037 6.7411
-11.2383 -51.4025 6.7513
-11.1352 -51.4012 6.7524
-11.0323 -51.4 6.752
-10.9291 -51.3987 6.7541
-10.8259 -51.3975 6.7566
-10.7224 -51.3962 6.7616
-10.6181 -51.395 6.7767
-10.513 -51.3939 6.8007
-10.4085 -51.3927 6.8183
-10.3059 -51.3914 6.814
-10.2048 -51.3901 6.7923
-10.1036 -51.3887 6.7729
-10.0011 -51.3875 6.7678
-9.8971 -51.3862 6.779
-9.7921 -51.3851 6.8025
-9.6874 -51.3839 6.8236
-9.5839 -51.3827 6.8302
-9.4809 -51.3814 6.831
-9.377 -51.3802 6.8421
-9.2717 -51.379 6.8702
-9.1653 -51.378 6.9117
-9.0589 -51.3769 6.9534
-8.9536 -51.3757 6.9818
-8.8493 -51.3745 6.9992
-8.7452 -51.3733 7.0149
-8.6413 -51.3721 7.027
-8.5382 -51.3709 7.031
-8.4349 -51.3697 7.0366
-8.3307 -51.3685 7.0529
-8.2265 -51.3673 7.07
-8.123 -51.3661 7.0783
-8.0194 -51.3648 7.0877
-7.915 -51.3637 7.1083
-7.8106 -51.3625 7.1286
-7.7074 -51.3612 7.1331
-7.6049 -51.36 7.1301
-7.502 -51.3587 7.1305
-7.3991 -51.3575 7.1329
-7.2957 -51.3562 7.1402
-7.1919 -51.355 7.1542
-7.0888 -51.3538 7.1585
-6.9873 -51.3525 7.1404
-6.8871 -51.3511 7.1061
-6.7872 -51.3497 7.0683
-6.6867 -51.3483 7.0373
-6.5851 -51.347 7.0204
-6.4826 -51.3457 7.0156
-6.38 -51.3444 7.0124
-6.2777 -51.3431 7.0051
-6.1754 -51.3418 6.9982
-6.0726 -51.3406 6.9971
-5.9693 -51.3394 7.0043
-5.8653 -51.3382 7.0207
-5.7607 -51.337 7.0452
-5.6563 -51.3358 7.0685
-5.5532 -51.3346 7.0734
-5.4518 -51.3333 7.0532
-5.3515 -51.3319 7.017
-5.251 -51.3305 6.9824
-5.1491 -51.3292 6.97
-5.0452 -51.328 6.9845
-4.9401 -51.3268 7.0189
-4.8346 -51.3258 7.0582
-4.7309 -51.3246 7.0726
-4.6301 -51.3232 7.0429
-4.5304 -51.3217 6.9949
-4.4299 -51.3203 6.9601
-4.3275 -51.319 6.954
-4.2235 -51.3178 6.9719
-4.1188 -51.3167 7.0013
-4.0139 -51.3156 7.0339
-3.909 -51.3145 7.0671
-3.8038 -51.3134 7.1049
-3.698 -51.3123 7.1534
-3.5916 -51.3113 7.2112
-3.4857 -51.3103 7.263
-3.3811 -51.3092 7.2935
-3.2778 -51.3079 7.3029
-3.1762 -51.3066 7.2864
-3.0758 -51.3052 7.2472
-2.9743 -51.3039 7.2279
-2.8706 -51.3027 7.2442
-2.766 -51.3016 7.2769
-2.6618 -51.3004 7.3026
-2.5589 -51.2992 7.3068
-2.4572 -51.2978 7.2894
-2.356 -51.2965 7.2645
-2.2543 -51.2951 7.2461
-2.1521 -51.2939 7.2375
-2.0488 -51.2926 7.2486
-1.9441 -51.2915 7.2848
-1.8394 -51.2904 7.3211
-1.736 -51.2892 7.3344
-1.6335 -51.288 7.3305
-1.531 -51.2867 7.3279
-1.4283 -51.2855 7.3296
-1.3259 -51.2842 7.3242
-1.224 -51.2829 7.3101
-1.1218 -51.2816 7.3004
-1.0192 -51.2803 7.2996
-0.9166 -51.2791 7.298
-0.8143 -51.2778 7.2911
-0.7118 -51.2765 7.288
-0.6091 -51.2752 7.2889
-0.5069 -51.2739 7.2801
-0.4052 -51.2726 7.2603
-0.3032 -51.2713 7.2471
-0.2004 -51.27 7.2497
-0.0975 -51.2688 7.2543
0.0049 -51.2675 7.2469
0.107 -51.2662 7.2351
0.2096 -51.265 7.2349
0.3127 -51.2637 7.2435
0.4157 -51.2625 7.2502
0.5183 -51.2613 7.2489
0.6206 -51.26 7.2394
0.7227 -51.2586 7.2265
0.8249 -51.2573 7.2164
0.9274 -51.2561 7.2121
1.03 -51.2548 7.2113
1.1326 -51.2535 7.2091
1.2352 -51.2523 7.2063
1.3379 -51.251 7.2061
1.4405 -51.2497 7.2052
1.5429 -51.2485 7.1986
1.6453 -51.2472 7.1912
1.7479 -51.2459 7.1884
1.8505 -51.2446 7.1869
1.953 -51.2434 7.1825
2.0556 -51.2421 7.179
2.1584 -51.2409 7.1825
2.2614 -51.2396 7.1908
2.3642 -51.2384 7.1935
2.4668 -51.2371 7.1906
2.5696 -51.2359 7.1926
2.6725 -51.2346 7.1994
2.7753 -51.2334 7.2028
2.8781 -51.2322 7.2038
2.9809 -51.2309 7.2082
3.0839 -51.2297 7.2167
3.1869 -51.2285 7.2247
3.2895 -51.2272 7.2235
3.3919 -51.2259 7.2144
3.4942 -51.2246 7.2048
3.5966 -51.2233 7.1959
3.699 -51.222 7.1898
3.8018 -51.2208 7.1922
3.9048 -51.2196 7.2028
4.008 -51.2184 7.2171
4.111 -51.2172 7.2273
4.2136 -51.2159 7.2245
4.316 -51.2146 7.2169
4.4186 -51.2134 7.2152
4.5215 -51.2121 7.2218
4.6246 -51.2109 7.2344
4.7275 -51.2097 7.2436
4.8299 -51.2084 7.2352
4.9321 -51.2071 7.22
5.0349 -51.2058 7.2236
5.1381 -51.2047 7.2417
5.241 -51.2034 7.2491
5.3433 -51.2021 7.2368
5.4453 -51.2008 7.2113
5.5473 -51.1994 7.1881
5.6499 -51.1981 7.1853
5.7532 -51.197 7.207
5.8567 -51.1959 7.2392
5.96 -51.1947 7.2662
6.0631 -51.1936 7.2836
6.166 -51.1923 7.293
6.2686 -51.1911 7.2893
6.3707 -51.1897 7.2691
6.4727 -51.1883 7.2405
6.5747 -51.1869 7.2133
6.6769 -51.1856 7.1938
6.7794 -51.1843 7.1825
6.8819 -51.183 7.1737
6.9842 -51.1816 7.1575
7.0863 -51.1803 7.1306
7.1884 -51.1789 7.1011
7.2907 -51.1775 7.0795
7.3932 -51.1762 7.0692
7.4959 -51.1749 7.0683
7.5987 -51.1737 7.0725
7.7015 -51.1724 7.0745
7.8041 -51.1712 7.0698
7.9068 -51.1699 7.0679
8.0097 -51.1687 7.0752
8.1125 -51.1674 7.0786
8.2149 -51.1661 7.0604
8.3172 -51.1647 7.0342
8.4198 -51.1634 7.0241
8.5225 -51.1621 7.0214
8.6251 -51.1608 7.0146
8.7279 -51.1596 7.0165
8.831 -51.1584 7.0392
8.9342 -51.1573 7.0699
9.0372 -51.1561 7.087
9.1398 -51.1548 7.0781
9.2421 -51.1534 7.0512
9.3445 -51.152 7.0212
9.447 -51.1507 6.9982
9.5496 -51.1493 6.9867
9.6523 -51.1481 6.9837
9.7551 -51.1468 6.9844
9.858 -51.1456 6.9916
9.9609 -51.1444 7.0094
10.0639 -51.1433 7.0342
10.1669 -51.1421 7.0592
10.2698 -51.141 7.0775
10.3726 -51.1397 7.0811
10.4752 -51.1384 7.067
10.5778 -51.137 7.0471
10.6804 -51.1357 7.0373
10.7832 -51.1345 7.0433
10.8861 -51.1333 7.055
10.9888 -51.1321 7.0608
11.0916 -51.1308 7.0585
11.1943 -51.1295 7.0544
11.297 -51.1283 7.0541
11.3998 -51.127 7.058
11.5026 -51.1258 7.0647
11.6053 -51.1245 7.0684
11.7081 -51.1233 7.0625
11.8108 -51.122 7.0539
11.9135 -51.1207 7.0552
12.0163 -51.1195 7.0645
12.1191 -51.1182 7.0659
12.2218 -51.1169 7.047
12.3245 -51.1154 7.0118
12.4272 -51.114 6.9801
12.53 -51.1127 6.9667
12.6328 -51.1114 6.961
12.7356 -51.1101 6.9527
12.8384 -51.1088 6.946
12.9412 -51.1075 6.9448
13.044 -51.1063 6.9486
13.1468 -51.105 6.9517
13.2496 -51.1038 6.9462
13.3525 -51.1024 6.935
13.4553 -51.1012 6.9301
13.5581 -51.0999 6.9339
13.6609 -51.0987 6.9399
13.7636 -51.0975 6.9452
13.8664 -51.0962 6.9473
13.9693 -51.0949 6.942
14.0721 -51.0936 6.9331
14.175 -51.0923 6.9261
14.2779 -51.091 6.9199
14.3807 -51.0897 6.9111
14.4836 -51.0884 6.9019
14.5865 -51.0871 6.894
14.6894 -51.0858 6.8829
14.7924 -51.0844 6.8701
14.8953 -51.0831 6.8617
14.9982 -51.0818 6.8547
15.1011 -51.0806 6.8517
15.2039 -51.0793 6.8564
15.3067 -51.0781 6.8619
15.4096 -51.0768 6.8588
15.5126 -51.0755 6.8424
15.6158 -51.0741 6.8153
15.719 -51.0727 6.7878
15.8222 -51.0713 6.7692
15.9252 -51.07 6.7606
16.0281 -51.0687 6.7565
16.1311 -51.0674 6.7521
16.234 -51.0661 6.7491
16.3369 -51.0649 6.7507
16.4399 -51.0636 6.7483
16.5431 -51.0622 6.7287
16.6466 -51.0608 6.6915
16.7501 -51.0593 6.6542
16.8533 -51.058 6.6393
16.9562 -51.0567 6.6449
17.059 -51.0555 6.6496
17.162 -51.0542 6.6482
17.265 -51.053 6.6465
17.3681 -51.0517 6.6424
17.4713 -51.0503 6.625
17.5751 -51.0488 6.5861
17.6791 -51.0473 6.5325
17.7833 -51.0457 6.476
17.8872 -51.0442 6.4314
17.9909 -51.0428 6.4007
18.0945 -51.0414 6.374
18.1982 -51.04 6.3481
18.3016 -51.0386 6.3307
18.4049 -51.0373 6.3224
18.5082 -51.036 6.3131
18.6118 -51.0346 6.2945
18.7156 -51.0332 6.265
18.8197 -51.0317 6.2254
18.9238 -51.0302 6.1848
19.0276 -51.0288 6.1584
19.1311 -51.0275 6.1483
19.2346 -51.0262 6.1335
19.3388 -51.0247 6.0952
19.4436 -51.0231 6.0353
19.5487 -51.0215 5.9651
19.6538 -51.0198 5.899
19.7584 -51.0183 5.849
19.8627 -51.0168 5.8135
19.9669 -51.0154 5.7847
20.0709 -51.014 5.7612
20.1749 -51.0126 5.7383
20.2794 -51.0111 5.7002
20.3847 -51.0095 5.6361
20.4902 -51.0079 5.5684
20.5948 -51.0064 5.5281
20.6989 -51.005 5.5087
20.8025 -51.0037 5.5038
20.9073 -51.0022 5.4639
-15.3765 -51.5508 5.6172
-15.2498 -51.5502 5.8344
-15.1277 -51.5495 6.0098
-15.0088 -51.5488 6.1565
-14.8933 -51.5479 6.2725
-14.7818 -51.5469 6.3506
-14.6739 -51.5458 6.395
-14.568 -51.5446 6.4212
-14.4622 -51.5434 6.4466
-14.3555 -51.5423 6.4812
-14.2487 -51.5411 6.516
-14.1432 -51.5399 6.5388
-14.0385 -51.5387 6.5541
-13.9336 -51.5375 6.5719
-13.8284 -51.5363 6.5922
-13.7235 -51.5351 6.6103
-13.6192 -51.5339 6.6226
-13.5155 -51.5327 6.6286
-13.4118 -51.5314 6.6346
-13.3072 -51.5302 6.6504
-13.2013 -51.5291 6.6784
-13.0958 -51.5279 6.7039
-12.9918 -51.5267 6.7134
-12.8894 -51.5254 6.7074
-12.7875 -51.5241 6.6955
-12.6849 -51.5228 6.6914
-12.5811 -51.5216 6.6985
-12.4779 -51.5203 6.7003
-12.3766 -51.519 6.6822
-12.276 -51.5177 6.6567
-12.1743 -51.5163 6.643
-12.0711 -51.5151 6.6447
-11.9671 -51.5139 6.6551
-11.8629 -51.5126 6.6675
-11.7587 -51.5114 6.6793
-11.6543 -51.5102 6.6941
-11.5494 -51.509 6.7143
-11.4443 -51.5079 6.7373
-11.3396 -51.5067 6.7558
-11.2359 -51.5054 6.7635
-11.1332 -51.5042 6.7597
-11.031 -51.5029 6.7513
-10.9283 -51.5016 6.7484
-10.8249 -51.5004 6.7531
-10.721 -51.4991 6.7625
-10.6167 -51.4979 6.7779
-10.5119 -51.4967 6.7983
-10.4075 -51.4955 6.8148
-10.3043 -51.4943 6.8167
-10.2025 -51.493 6.8037
-10.1009 -51.4917 6.7888
-9.9987 -51.4904 6.78
-9.8954 -51.4891 6.7834
-9.7904 -51.488 6.8067
-9.6851 -51.4868 6.8343
-9.5811 -51.4856 6.8467
-9.4779 -51.4843 6.8496
-9.3742 -51.4831 6.8589
-9.2693 -51.4819 6.8826
-9.1632 -51.4808 6.9205
-9.0567 -51.4797 6.9644
-8.9509 -51.4786 6.9984
-8.8467 -51.4774 7.0148
-8.7431 -51.4762 7.0246
-8.6393 -51.4749 7.0358
-8.5356 -51.4737 7.046
-8.4321 -51.4725 7.054
-8.3286 -51.4713 7.0621
-8.2254 -51.47 7.0668
-8.1225 -51.4688 7.0677
-8.019 -51.4675 7.0762
-7.9146 -51.4664 7.0964
-7.8102 -51.4652 7.1163
-7.7065 -51.464 7.1281
-7.603 -51.4627 7.1377
-7.4995 -51.4615 7.1462
-7.3966 -51.4603 7.1481
-7.2939 -51.459 7.1462
-7.1911 -51.4577 7.1475
-7.0883 -51.4565 7.1478
-6.9862 -51.4552 7.1378
-6.885 -51.4539 7.1174
-6.7842 -51.4525 7.0901
-6.6836 -51.4511 7.0611
-6.5825 -51.4498 7.0383
-6.4807 -51.4485 7.0239
-6.3787 -51.4472 7.0119
-6.2768 -51.4459 6.9993
-6.1746 -51.4446 6.9905
-6.0717 -51.4433 6.9917
-5.9681 -51.4421 7.0026
-5.8641 -51.4409 7.0198
-5.7594 -51.4398 7.0456
-5.6544 -51.4386 7.0769
-5.5504 -51.4374 7.0936
-5.4488 -51.4361 7.0774
-5.3489 -51.4347 7.0355
-5.2491 -51.4333 6.992
-5.1474 -51.432 6.9754
-5.0435 -51.4308 6.9905
-4.9384 -51.4296 7.0252
-4.833 -51.4285 7.0624
-4.7297 -51.4273 7.0714
-4.629 -51.4259 7.0391
-4.5294 -51.4245 6.9907
-4.4288 -51.4231 6.9576
-4.326 -51.4218 6.9571
-4.2217 -51.4207 6.9791
-4.1168 -51.4195 7.0115
-4.0116 -51.4184 7.0491
-3.9064 -51.4173 7.087
-3.8013 -51.4162 7.1236
-3.6961 -51.4151 7.1627
-3.5905 -51.414 7.2089
-3.4849 -51.4129 7.2554
-3.3802 -51.4118 7.2868
-3.2773 -51.4106 7.2907
-3.1763 -51.4092 7.2629
-3.0759 -51.4078 7.2246
-2.974 -51.4065 7.2107
-2.87 -51.4053 7.2325
-2.7652 -51.4042 7.2679
-2.6611 -51.403 7.2924
-2.5582 -51.4018 7.2965
-2.4562 -51.4005 7.2847
-2.3542 -51.3992 7.2715
-2.2519 -51.3979 7.2655
-2.1494 -51.3966 7.2631
-2.0463 -51.3954 7.2702
-1.9421 -51.3943 7.2965
-1.8378 -51.3931 7.3263
-1.7342 -51.3919 7.3432
-1.6312 -51.3907 7.3486
-1.5286 -51.3894 7.3484
-1.4263 -51.3882 7.3418
-1.3244 -51.3869 7.3279
-1.2225 -51.3855 7.3132
-1.1203 -51.3843 7.3055
-1.0177 -51.383 7.3034
-0.9154 -51.3817 7.2959
-0.8135 -51.3804 7.2827
-0.7111 -51.3791 7.2765
-0.6083 -51.3779 7.2787
-0.5057 -51.3766 7.2768
-0.4035 -51.3753 7.2683
-0.301 -51.374 7.2647
-0.1979 -51.3728 7.2729
-0.0948 -51.3716 7.2818
0.0075 -51.3703 7.2755
0.1094 -51.369 7.2592
0.2117 -51.3677 7.2516
0.3146 -51.3665 7.2556
0.4175 -51.3652 7.2606
0.52 -51.364 7.2575
0.6222 -51.3627 7.2457
0.7242 -51.3614 7.2324
0.8265 -51.3601 7.2238
0.9291 -51.3588 7.2209
1.0317 -51.3575 7.2185
1.1341 -51.3563 7.2129
1.2367 -51.355 7.2109
1.3397 -51.3538 7.2181
1.4426 -51.3525 7.2244
1.5451 -51.3513 7.2199
1.6474 -51.35 7.2091
1.7497 -51.3487 7.2003
1.8521 -51.3474 7.1934
1.9545 -51.3461 7.1858
2.0571 -51.3448 7.1835
2.1601 -51.3436 7.1925
2.2632 -51.3424 7.2018
2.3657 -51.3411 7.1977
2.4679 -51.3398 7.1862
2.5706 -51.3385 7.185
2.6737 -51.3373 7.1953
2.7767 -51.3361 7.205
2.8797 -51.3349 7.2118
2.9825 -51.3336 7.2155
3.085 -51.3324 7.2125
3.1875 -51.3311 7.2074
3.2902 -51.3298 7.2062
3.3929 -51.3286 7.2065
3.4956 -51.3273 7.2068
3.5982 -51.3261 7.2061
3.7009 -51.3248 7.2052
3.8036 -51.3236 7.2065
3.9064 -51.3223 7.2115
4.0095 -51.3211 7.2239
4.1127 -51.3199 7.2381
4.2155 -51.3187 7.2425
4.3181 -51.3174 7.2412
4.4209 -51.3162 7.2462
4.5239 -51.315 7.257
4.6268 -51.3138 7.2662
4.7295 -51.3125 7.2666
4.8317 -51.3112 7.2525
4.9339 -51.3099 7.2351
5.0366 -51.3086 7.2354
5.1398 -51.3074 7.2541
5.2428 -51.3062 7.267
5.3452 -51.3049 7.2574
5.4471 -51.3035 7.2299
5.549 -51.3022 7.2014
5.6514 -51.3009 7.1925
5.7546 -51.2997 7.2108
5.8581 -51.2986 7.243
5.9614 -51.2974 7.2713
6.0645 -51.2963 7.2886
6.1674 -51.295 7.2972
6.27 -51.2938 7.2943
6.3722 -51.2924 7.2776
6.4743 -51.2911 7.2549
6.5765 -51.2897 7.2363
6.6789 -51.2884 7.2242
6.7814 -51.2871 7.2171
6.884 -51.2859 7.2113
6.9863 -51.2845 7.1973
7.0885 -51.2832 7.171
7.1906 -51.2818 7.1441
7.293 -51.2805 7.1283
7.3956 -51.2792 7.1223
7.4982 -51.2779 7.1183
7.6008 -51.2766 7.1129
7.7033 -51.2753 7.1042
7.8059 -51.274 7.0934
7.9085 -51.2728 7.09
8.0114 -51.2715 7.0995
8.1143 -51.2703 7.1094
8.2169 -51.269 7.1041
8.3194 -51.2677 7.0894
8.4219 -51.2664 7.0786
8.5245 -51.2651 7.0659
8.627 -51.2638 7.051
8.7297 -51.2625 7.0502
8.8327 -51.2613 7.0676
8.9357 -51.2602 7.0886
9.0385 -51.2589 7.0935
9.141 -51.2576 7.0756
9.2434 -51.2562 7.0467
9.3457 -51.2548 7.0165
9.4482 -51.2534 6.9925
9.5508 -51.2521 6.9827
9.6537 -51.2509 6.9869
9.7565 -51.2497 6.9965
9.8594 -51.2485 7.008
9.9623 -51.2473 7.0219
10.0652 -51.2461 7.0393
10.1682 -51.2449 7.0591
10.271 -51.2437 7.0749
10.3738 -51.2425 7.0758
10.4764 -51.2411 7.0591
10.579 -51.2398 7.0383
10.6817 -51.2385 7.0318
10.7845 -51.2373 7.0463
10.8874 -51.2361 7.065
10.9902 -51.2349 7.0677
11.0928 -51.2336 7.0584
11.1955 -51.2323 7.0501
11.2983 -51.231 7.0473
11.401 -51.2298 7.0506
11.5038 -51.2285 7.0593
11.6066 -51.2273 7.0687
11.7094 -51.2261 7.0714
11.8121 -51.2248 7.0669
11.9148 -51.2235 7.0648
12.0176 -51.2223 7.0667
12.1203 -51.221 7.0647
12.2231 -51.2197 7.0528
12.3258 -51.2183 7.0306
12.4285 -51.217 7.0078
12.5313 -51.2156 6.9929
12.6341 -51.2143 6.98
12.7369 -51.213 6.9657
12.8397 -51.2117 6.9578
12.9425 -51.2104 6.9573
13.0453 -51.2092 6.9595
13.1481 -51.2079 6.9607
13.2509 -51.2066 6.9548
13.3537 -51.2053 6.9421
13.4565 -51.204 6.9323
13.5594 -51.2027 6.9279
13.6622 -51.2015 6.9271
13.765 -51.2002 6.9348
13.8677 -51.199 6.9492
13.9705 -51.1978 6.9592
14.0733 -51.1966 6.9564
14.1762 -51.1952 6.9426
14.2791 -51.1939 6.9267
14.382 -51.1926 6.9131
14.4849 -51.1913 6.9032
14.5878 -51.19 6.8983
14.6906 -51.1887 6.8938
14.7935 -51.1874 6.8876
14.8964 -51.1861 6.8795
14.9993 -51.1848 6.8703
15.1022 -51.1835 6.8665
15.205 -51.1823 6.8717
15.3078 -51.181 6.8764
15.4107 -51.1798 6.872
15.5138 -51.1784 6.8557
15.6169 -51.177 6.831
15.7201 -51.1757 6.8072
15.8231 -51.1743 6.7915
15.9262 -51.173 6.7809
16.0292 -51.1717 6.7699
16.1322 -51.1704 6.7611
16.2352 -51.1691 6.7579
16.3381 -51.1678 6.7577
16.4411 -51.1666 6.7526
16.5443 -51.1652 6.7318
16.6478 -51.1637 6.6945
16.7513 -51.1623 6.6592
16.8544 -51.161 6.6488
16.9572 -51.1598 6.6567
17.0601 -51.1585 6.6628
17.163 -51.1573 6.6645
17.2659 -51.156 6.6695
17.3687 -51.1548 6.6766
17.4717 -51.1535 6.6739
17.575 -51.1522 6.6522
17.6787 -51.1507 6.6168
17.7825 -51.1493 6.5784
17.8862 -51.1478 6.5427
17.9899 -51.1464 6.5082
18.0937 -51.145 6.4739
18.1973 -51.1436 6.4448
18.3008 -51.1422 6.4272
18.4039 -51.1409 6.4217
18.5071 -51.1396 6.4191
18.6104 -51.1383 6.4098
18.7138 -51.137 6.3923
18.8176 -51.1356 6.3634
18.9217 -51.1341 6.3229
19.0257 -51.1327 6.2875
19.1293 -51.1313 6.2677
19.233 -51.1299 6.2456
19.3373 -51.1284 6.2016
19.4421 -51.1269 6.1392
19.5472 -51.1252 6.0693
19.6523 -51.1236 5.9998
19.7572 -51.1221 5.9381
19.8619 -51.1205 5.89
19.9661 -51.1191 5.8568
20.07 -51.1177 5.8377
20.1738 -51.1164 5.8208
20.2782 -51.1149 5.785
20.3833 -51.1134 5.725
20.4885 -51.1118 5.6661
20.593 -51.1104 5.6302
20.6971 -51.109 5.6063
20.8016 -51.1075 5.5731
20.9065 -51.106 5.5263
-15.6163 -51.6558 5.3022
-15.4818 -51.6553 5.5882
-15.3557 -51.6547 5.7987
-15.2348 -51.6539 5.9622
-15.1164 -51.653 6.1034
-15.0004 -51.6521 6.2232
-14.8867 -51.6511 6.3218
-14.776 -51.6501 6.3927
-14.6687 -51.6489 6.4323
-14.5639 -51.6477 6.4481
-14.4598 -51.6465 6.4569
-14.3545 -51.6453 6.4775
-14.2481 -51.6441 6.5088
-14.1422 -51.6429 6.5354
-14.0371 -51.6417 6.555
-13.9321 -51.6405 6.5741
-13.8271 -51.6393 6.5926
-13.7226 -51.6381 6.6064
-13.6187 -51.6369 6.6147
-13.5149 -51.6356 6.6214
-13.4106 -51.6344 6.6335
-13.3051 -51.6332 6.6579
-13.1988 -51.632 6.6903
-13.0932 -51.6309 6.7163
-12.9892 -51.6296 6.7266
-12.8865 -51.6284 6.7226
-12.7844 -51.6271 6.7134
-12.6816 -51.6258 6.7107
-12.5782 -51.6245 6.715
-12.4757 -51.6233 6.7099
-12.3746 -51.6219 6.6895
-12.2735 -51.6206 6.6697
-12.1712 -51.6193 6.6616
-12.0682 -51.6181 6.6613
-11.9648 -51.6168 6.6645
-11.8611 -51.6156 6.6715
-11.7569 -51.6144 6.6844
-11.652 -51.6132 6.7047
-11.5467 -51.612 6.7291
-11.4417 -51.6108 6.7506
-11.3375 -51.6096 6.7637
-11.2342 -51.6083 6.7671
-11.1316 -51.6071 6.7628
-11.0294 -51.6058 6.7541
-10.9267 -51.6045 6.7508
-10.8232 -51.6033 6.7563
-10.7194 -51.602 6.7658
-10.6154 -51.6008 6.7767
-10.5113 -51.5996 6.7895
-10.4073 -51.5984 6.8015
-10.3038 -51.5971 6.8075
-10.2008 -51.5959 6.808
-10.0979 -51.5946 6.8081
-9.9953 -51.5933 6.8038
-9.8924 -51.5921 6.8024
-9.7879 -51.5909 6.8208
-9.6826 -51.5897 6.8484
-9.5783 -51.5885 6.8639
-9.475 -51.5872 6.8691
-9.3713 -51.586 6.8779
-9.2667 -51.5848 6.8983
-9.1609 -51.5837 6.932
-9.0546 -51.5825 6.9733
-8.9489 -51.5814 7.0076
-8.8447 -51.5802 7.0239
-8.7414 -51.5789 7.0294
-8.6378 -51.5777 7.0381
-8.5336 -51.5765 7.0543
-8.4295 -51.5753 7.0702
-8.3263 -51.5741 7.0749
-8.2241 -51.5728 7.0675
-8.1217 -51.5715 7.0622
-8.0182 -51.5703 7.0703
-7.914 -51.5691 7.0878
-7.8098 -51.5679 7.1046
-7.7058 -51.5667 7.1201
-7.6016 -51.5655 7.1388
-7.4975 -51.5643 7.1554
-7.3944 -51.563 7.1597
-7.2921 -51.5617 7.1528
-7.1898 -51.5605 7.1468
-7.0871 -51.5592 7.1461
-6.9846 -51.5579 7.1423
-6.8828 -51.5566 7.1289
-6.7816 -51.5553 7.1071
-6.6808 -51.554 7.0811
-6.5798 -51.5526 7.0565
-6.4785 -51.5513 7.0362
-6.377 -51.55 7.0178
-6.2756 -51.5487 6.9985
-6.174 -51.5473 6.9814
-6.0715 -51.5461 6.976
-5.968 -51.5449 6.9861
-5.8637 -51.5437 7.0057
-5.7591 -51.5425 7.0313
-5.654 -51.5413 7.0643
-5.5493 -51.5402 7.0917
-5.4469 -51.5389 7.0849
-5.3466 -51.5375 7.0499
-5.2462 -51.5361 7.0144
-5.1443 -51.5348 7.0009
-5.0408 -51.5336 7.0111
-4.9363 -51.5325 7.0367
-4.8317 -51.5313 7.0631
-4.7286 -51.53 7.0678
-4.6276 -51.5287 7.0409
-4.5275 -51.5273 7.0005
-4.4262 -51.526 6.9759
-4.323 -51.5247 6.9818
-4.2186 -51.5235 7.0069
-4.1137 -51.5224 7.0398
-4.0085 -51.5213 7.0768
-3.9034 -51.5201 7.1132
-3.7987 -51.519 7.1446
-3.6941 -51.5178 7.1729
-3.5895 -51.5167 7.2026
-3.485 -51.5155 7.2324
-3.3811 -51.5143 7.2507
-3.2787 -51.5131 7.2459
-3.1775 -51.5117 7.2219
-3.0761 -51.5104 7.1991
-2.9734 -51.5091 7.1992
-2.8691 -51.508 7.2268
-2.7642 -51.5068 7.2627
-2.6602 -51.5057 7.2857
-2.5572 -51.5044 7.2913
-2.4547 -51.5032 7.2881
-2.352 -51.5019 7.288
-2.249 -51.5007 7.2933
-2.1463 -51.4994 7.2939
-2.0437 -51.4982 7.2924
-1.9405 -51.4969 7.3025
-1.8366 -51.4958 7.3237
-1.7327 -51.4946 7.346
-1.6291 -51.4934 7.3627
-1.5262 -51.4921 7.3675
-1.4243 -51.4908 7.3543
-1.3228 -51.4895 7.334
-1.2209 -51.4882 7.32
-1.1184 -51.4869 7.3156
-1.0159 -51.4857 7.3128
-0.9139 -51.4844 7.3009
-0.8121 -51.4831 7.2838
-0.7098 -51.4818 7.2765
-0.607 -51.4805 7.2794
-0.5042 -51.4793 7.2812
-0.4016 -51.478 7.2796
-0.2988 -51.4768 7.2826
-0.1956 -51.4756 7.2935
-0.0925 -51.4743 7.3032
0.01 -51.4731 7.2985
0.1118 -51.4718 7.2807
0.2138 -51.4704 7.2666
0.3163 -51.4692 7.2631
0.419 -51.4679 7.2643
0.5215 -51.4667 7.2615
0.6238 -51.4654 7.2524
0.726 -51.4641 7.2425
0.8284 -51.4628 7.2375
0.9311 -51.4615 7.2361
1.0335 -51.4603 7.2317
1.1359 -51.459 7.2245
1.2386 -51.4577 7.2254
1.3418 -51.4565 7.2368
1.4449 -51.4553 7.2457
1.5474 -51.454 7.2417
1.6494 -51.4527 7.2278
1.7515 -51.4514 7.2126
1.8536 -51.4501 7.1992
1.9559 -51.4488 7.1895
2.0587 -51.4476 7.1916
2.162 -51.4464 7.2075
2.2651 -51.4451 7.2171
2.3673 -51.4438 7.2051
2.4692 -51.4425 7.1845
2.5716 -51.4412 7.1779
2.6748 -51.44 7.1909
2.7782 -51.4388 7.2091
2.8813 -51.4376 7.2214
2.984 -51.4364 7.2228
3.0863 -51.4351 7.2118
3.1886 -51.4338 7.1999
3.2912 -51.4325 7.1985
3.3941 -51.4313 7.2037
3.497 -51.43 7.2113
3.6 -51.4288 7.2208
3.703 -51.4276 7.2301
3.8058 -51.4264 7.2336
3.9084 -51.4251 7.2327
4.0112 -51.4239 7.2368
4.1142 -51.4226 7.2468
4.2171 -51.4214 7.2543
4.32 -51.4202 7.2601
4.4229 -51.419 7.2703
4.5259 -51.4177 7.28
4.6286 -51.4165 7.2813
4.7311 -51.4152 7.2757
4.8334 -51.4139 7.2653
4.9357 -51.4126 7.2533
5.0383 -51.4114 7.2521
5.1414 -51.4101 7.266
5.2444 -51.409 7.2802
5.347 -51.4077 7.2784
5.4492 -51.4064 7.2592
5.5512 -51.405 7.2355
5.6535 -51.4037 7.2241
5.7564 -51.4025 7.2324
5.8596 -51.4013 7.2533
5.9628 -51.4001 7.2725
6.0657 -51.3989 7.2858
6.1686 -51.3977 7.2954
6.2713 -51.3965 7.2984
6.3738 -51.3952 7.289
6.476 -51.3938 7.2715
6.5783 -51.3925 7.2562
6.6807 -51.3912 7.2467
6.7832 -51.3899 7.2403
6.8857 -51.3887 7.2334
6.9881 -51.3873 7.2199
7.0903 -51.386 7.198
7.1925 -51.3847 7.1756
7.2949 -51.3833 7.1626
7.3976 -51.3821 7.1591
7.5002 -51.3808 7.1558
7.6027 -51.3795 7.1474
7.7052 -51.3782 7.1361
7.8077 -51.3769 7.1262
7.9104 -51.3756 7.1243
8.0133 -51.3744 7.1317
8.1161 -51.3732 7.1404
8.2188 -51.3719 7.1417
8.3214 -51.3707 7.1352
8.4239 -51.3694 7.1218
8.5263 -51.368 7.1017
8.6288 -51.3667 7.0854
8.7314 -51.3654 7.0803
8.8342 -51.3642 7.0846
8.937 -51.3629 7.089
9.0396 -51.3616 7.0801
9.142 -51.3603 7.0581
9.2445 -51.3589 7.0336
9.3469 -51.3576 7.0108
9.4495 -51.3562 6.9926
9.5522 -51.355 6.9872
9.655 -51.3537 6.9959
9.758 -51.3525 7.0121
9.8609 -51.3513 7.0278
9.9638 -51.3501 7.0385
10.0666 -51.3489 7.0454
10.1694 -51.3477 7.0526
10.2722 -51.3464 7.0589
10.3749 -51.3452 7.0571
10.4775 -51.3439 7.0443
10.5802 -51.3425 7.0301
10.6829 -51.3413 7.0301
10.7858 -51.3401 7.0507
10.8887 -51.3389 7.073
10.9915 -51.3377 7.0742
11.0941 -51.3364 7.0617
11.1968 -51.3351 7.0514
11.2995 -51.3338 7.0477
11.4023 -51.3326 7.05
11.5051 -51.3313 7.0573
11.6079 -51.3301 7.067
11.7106 -51.3289 7.0733
11.8134 -51.3276 7.0729
11.9161 -51.3263 7.0712
12.0189 -51.3251 7.07
12.1216 -51.3238 7.0665
12.2243 -51.3225 7.059
12.3271 -51.3212 7.0472
12.4298 -51.3199 7.0317
12.5326 -51.3185 7.0147
12.6353 -51.3172 6.995
12.7381 -51.3159 6.9753
12.8409 -51.3146 6.9669
12.9437 -51.3133 6.9682
13.0465 -51.312 6.967
13.1493 -51.3108 6.9622
13.2521 -51.3095 6.9549
13.355 -51.3082 6.9429
13.4578 -51.3068 6.931
13.5606 -51.3056 6.9243
13.6635 -51.3043 6.9254
13.7662 -51.3031 6.936
13.8689 -51.3019 6.9541
13.9716 -51.3007 6.9716
14.0744 -51.2995 6.9741
14.1773 -51.2981 6.9552
14.2803 -51.2968 6.9306
14.3832 -51.2954 6.9157
14.4861 -51.2942 6.9115
14.5889 -51.2929 6.9116
14.6918 -51.2916 6.9099
14.7946 -51.2903 6.9049
14.8975 -51.289 6.8964
15.0005 -51.2877 6.8872
15.1033 -51.2865 6.8842
15.2061 -51.2852 6.887
15.309 -51.284 6.8882
15.4119 -51.2827 6.8822
15.5149 -51.2813 6.8667
15.618 -51.28 6.8445
15.7211 -51.2786 6.8237
15.8242 -51.2773 6.8087
15.9272 -51.276 6.7943
16.0304 -51.2746 6.7774
16.1334 -51.2733 6.7676
16.2363 -51.2721 6.7652
16.3393 -51.2708 6.7598
16.4424 -51.2695 6.7492
16.5456 -51.2681 6.7293
16.649 -51.2667 6.6968
16.7524 -51.2653 6.6681
16.8555 -51.264 6.6609
16.9583 -51.2628 6.6661
17.0612 -51.2615 6.6714
17.1641 -51.2603 6.6758
17.2669 -51.2591 6.6836
17.3696 -51.2579 6.6933
17.4725 -51.2566 6.6955
17.5757 -51.2553 6.6841
17.679 -51.2539 6.6661
17.7823 -51.2526 6.6476
17.8857 -51.2512 6.6254
17.9893 -51.2498 6.5963
18.093 -51.2484 6.5616
18.1968 -51.247 6.5291
18.3002 -51.2456 6.5088
18.4034 -51.2444 6.5038
18.5063 -51.2431 6.5058
18.6095 -51.2418 6.5026
18.7128 -51.2405 6.4901
18.8163 -51.2391 6.4686
18.9202 -51.2377 6.4336
19.0242 -51.2363 6.3968
19.1279 -51.2349 6.3715
19.2317 -51.2335 6.3443
19.3361 -51.232 6.2973
19.4409 -51.2305 6.2341
19.5458 -51.2289 6.1665
19.6509 -51.2273 6.0986
19.7558 -51.2258 6.034
19.8605 -51.2243 5.9822
19.9647 -51.2228 5.9491
20.0686 -51.2215 5.9279
20.1725 -51.2201 5.9064
20.2769 -51.2187 5.8696
20.3818 -51.2172 5.8161
20.4867 -51.2157 5.7668
20.5909 -51.2143 5.7375
20.6951 -51.2129 5.7111
20.7998 -51.2114 5.6676
21.2199 -51.2054 5.4732
21.3244 -51.204 5.4437
-15.7168 -51.7605 5.3183
-15.5876 -51.7599 5.5552
-15.4616 -51.7591 5.7632
-15.341 -51.7583 5.9232
-15.2232 -51.7573 6.0582
-15.107 -51.7564 6.1791
-14.9931 -51.7554 6.2794
-14.8813 -51.7543 6.3606
-14.7715 -51.7532 6.4226
-14.6647 -51.752 6.4577
-14.5607 -51.7508 6.4658
-14.4578 -51.7495 6.4632
-14.3537 -51.7483 6.4721
-14.2478 -51.7471 6.499
-14.1414 -51.7459 6.5308
-14.0357 -51.7447 6.5559
-13.9306 -51.7435 6.5749
-13.8259 -51.7423 6.5907
-13.7216 -51.741 6.6026
-13.6176 -51.7398 6.6118
-13.5133 -51.7386 6.6238
-13.4081 -51.7374 6.6448
-13.302 -51.7362 6.6761
-13.1957 -51.735 6.7087
-13.0906 -51.7338 6.7294
-12.987 -51.7325 6.7346
-12.8845 -51.7313 6.7294
-12.7824 -51.73 6.7205
-12.6797 -51.7287 6.7167
-12.5765 -51.7275 6.7183
-12.4739 -51.7262 6.7148
-12.372 -51.7249 6.7027
-12.2702 -51.7236 6.69
-12.168 -51.7223 6.6808
-12.0656 -51.721 6.6745
-11.9627 -51.7198 6.6728
-11.8593 -51.7185 6.6772
-11.7551 -51.7173 6.6893
-11.6501 -51.7161 6.7103
-11.5449 -51.7149 6.7338
-11.4403 -51.7137 6.7509
-11.3367 -51.7124 6.7579
-11.2337 -51.7112 6.7581
-11.1308 -51.7099 6.757
-11.0279 -51.7087 6.7566
-10.9249 -51.7074 6.7561
-10.8217 -51.7061 6.7582
-10.7182 -51.7049 6.7639
-10.6147 -51.7037 6.7701
-10.5111 -51.7024 6.7774
-10.4073 -51.7012 6.787
-10.3033 -51.7 6.7978
-10.1991 -51.6987 6.8126
-10.0948 -51.6975 6.8273
-9.9918 -51.6963 6.8283
-9.8892 -51.695 6.8246
-9.7854 -51.6938 6.8349
-9.6807 -51.6926 6.8551
-9.5765 -51.6913 6.8698
-9.4729 -51.6901 6.8779
-9.3691 -51.6889 6.8886
-9.2644 -51.6877 6.9094
-9.1587 -51.6865 6.9425
-9.0526 -51.6854 6.9807
-8.9473 -51.6842 7.01
-8.8434 -51.683 7.0231
-8.7403 -51.6817 7.0265
-8.6368 -51.6805 7.0339
-8.5323 -51.6793 7.0541
-8.4275 -51.6781 7.0783
-8.3241 -51.6769 7.0856
-8.2221 -51.6756 7.0755
-8.1199 -51.6743 7.0681
-8.0165 -51.673 7.0748
-7.9126 -51.6718 7.0886
-7.8087 -51.6706 7.102
-7.7047 -51.6694 7.117
-7.6003 -51.6682 7.1382
-7.496 -51.667 7.1576
-7.393 -51.6658 7.161
-7.291 -51.6645 7.1502
-7.1888 -51.6632 7.1427
-7.0859 -51.6619 7.1446
-6.9831 -51.6607 7.1444
-6.8811 -51.6594 7.1337
-6.7796 -51.6581 7.1163
-6.6784 -51.6568 7.0959
-6.5773 -51.6554 7.0728
-6.4762 -51.6541 7.049
-6.375 -51.6528 7.0267
-6.2739 -51.6515 7.0042
-6.1727 -51.6501 6.9813
-6.0709 -51.6488 6.967
-5.9679 -51.6476 6.9692
-5.8639 -51.6464 6.9851
-5.7594 -51.6452 7.0086
-5.6547 -51.644 7.0356
-5.55 -51.6428 7.0623
-5.4467 -51.6416 7.0694
-5.3448 -51.6403 7.0571
-5.2431 -51.639 7.0405
-5.1409 -51.6377 7.0325
-5.0377 -51.6365 7.0381
-4.9337 -51.6353 7.056
-4.8295 -51.6341 7.0768
-4.7262 -51.6328 7.0839
-4.6246 -51.6315 7.0659
-4.5239 -51.6302 7.0348
-4.4221 -51.6289 7.0199
-4.3184 -51.6277 7.0329
-4.2139 -51.6265 7.0596
-4.1092 -51.6253 7.0882
-4.0046 -51.6241 7.117
-3.9001 -51.623 7.1446
-3.7959 -51.6218 7.1684
-3.6919 -51.6206 7.1884
-3.5881 -51.6194 7.2047
-3.4848 -51.6182 7.2145
-3.3821 -51.6169 7.2145
-3.28 -51.6156 7.2038
-3.1781 -51.6143 7.1908
-3.0755 -51.6131 7.1874
-2.9721 -51.6118 7.1998
-2.8676 -51.6107 7.2299
-2.7628 -51.6095 7.2646
-2.6588 -51.6083 7.2871
-2.5557 -51.6071 7.2946
-2.4529 -51.6059 7.2964
-2.3498 -51.6046 7.3031
-2.2467 -51.6034 7.3111
-2.1443 -51.6021 7.3062
-2.0422 -51.6008 7.2963
-1.9393 -51.5996 7.3001
-1.8355 -51.5984 7.32
-1.7315 -51.5972 7.3447
-1.6278 -51.596 7.364
-1.5248 -51.5948 7.3706
-1.4227 -51.5935 7.3606
-1.321 -51.5922 7.3423
-1.219 -51.5909 7.3297
-1.1165 -51.5896 7.3268
-1.014 -51.5884 7.3251
-0.9119 -51.5871 7.3148
-0.8099 -51.5858 7.3004
-0.7076 -51.5845 7.2944
-0.6049 -51.5833 7.2947
-0.5023 -51.582 7.2942
-0.3996 -51.5807 7.2933
-0.2968 -51.5795 7.2966
-0.1938 -51.5783 7.3043
-0.0909 -51.577 7.3078
0.0113 -51.5757 7.2988
0.1131 -51.5744 7.2811
0.215 -51.5731 7.2661
0.3175 -51.5718 7.2615
0.4203 -51.5706 7.2646
0.5231 -51.5694 7.2675
0.6256 -51.5681 7.2645
0.728 -51.5668 7.2587
0.8305 -51.5655 7.2552
0.9331 -51.5643 7.2528
1.0355 -51.563 7.2466
1.1379 -51.5617 7.2396
1.2407 -51.5605 7.2424
1.3439 -51.5593 7.256
1.4471 -51.558 7.2671
1.5496 -51.5568 7.2647
1.6517 -51.5555 7.2497
1.7535 -51.5542 7.2301
1.8555 -51.5528 7.2126
1.9577 -51.5516 7.2023
2.0606 -51.5503 7.2058
2.1638 -51.5491 7.2205
2.2668 -51.5479 7.2277
2.3689 -51.5466 7.2131
2.4706 -51.5452 7.1885
2.5728 -51.5439 7.1761
2.676 -51.5427 7.188
2.7795 -51.5415 7.2114
2.8829 -51.5403 7.2281
2.9856 -51.5391 7.23
3.088 -51.5378 7.222
3.1904 -51.5365 7.216
3.293 -51.5353 7.214
3.3957 -51.534 7.2124
3.4985 -51.5328 7.2185
3.6019 -51.5316 7.2372
3.7052 -51.5304 7.2581
3.8082 -51.5292 7.2661
3.9107 -51.5279 7.2621
4.0133 -51.5266 7.259
4.116 -51.5254 7.2622
4.2189 -51.5241 7.268
4.3218 -51.5229 7.276
4.4248 -51.5217 7.2867
4.5275 -51.5205 7.2914
4.63 -51.5192 7.2853
4.7325 -51.5179 7.2798
4.8351 -51.5166 7.2795
4.9376 -51.5154 7.2755
5.0401 -51.5141 7.2695
5.1428 -51.5128 7.2719
5.2458 -51.5116 7.2818
5.3486 -51.5104 7.2889
5.4511 -51.5091 7.2848
5.5534 -51.5078 7.2712
5.6557 -51.5065 7.2591
5.7583 -51.5053 7.2566
5.8611 -51.504 7.2622
5.964 -51.5028 7.2709
6.0669 -51.5016 7.2813
6.1699 -51.5004 7.2934
6.2727 -51.4991 7.3022
6.3753 -51.4979 7.3
6.4776 -51.4966 7.2877
6.58 -51.4953 7.2767
6.6825 -51.494 7.2699
6.785 -51.4927 7.2609
6.8873 -51.4914 7.2456
6.9895 -51.4901 7.2274
7.0919 -51.4888 7.2104
7.1942 -51.4874 7.1942
7.2966 -51.4861 7.1816
7.3992 -51.4849 7.1777
7.5019 -51.4836 7.1773
7.6045 -51.4823 7.1733
7.7071 -51.4811 7.1667
7.8097 -51.4798 7.1619
7.9124 -51.4785 7.1625
8.0152 -51.4773 7.1691
8.118 -51.4761 7.1763
8.2207 -51.4748 7.177
8.3232 -51.4735 7.1668
8.4256 -51.4722 7.1443
8.5278 -51.4708 7.1184
8.6303 -51.4695 7.1024
8.7329 -51.4682 7.0964
8.8356 -51.467 7.0928
8.9382 -51.4657 7.0854
9.0407 -51.4643 7.0677
9.1431 -51.463 7.0447
9.2457 -51.4617 7.0271
9.3483 -51.4604 7.0154
9.4509 -51.4591 7.0071
9.5536 -51.4578 7.0039
9.6565 -51.4566 7.0105
9.7594 -51.4554 7.0258
9.8623 -51.4542 7.0412
9.9651 -51.453 7.0485
10.0679 -51.4517 7.047
10.1706 -51.4504 7.0427
10.2733 -51.4492 7.0423
10.3761 -51.4479 7.0441
10.4788 -51.4466 7.0414
10.5815 -51.4454 7.0352
10.6843 -51.4441 7.0396
10.7872 -51.4429 7.063
10.8901 -51.4418 7.085
10.9928 -51.4405 7.084
11.0954 -51.4392 7.0698
11.1981 -51.4379 7.058
11.3008 -51.4366 7.0529
11.4036 -51.4354 7.0539
11.5064 -51.4341 7.0594
11.6091 -51.4329 7.0679
11.7119 -51.4317 7.074
11.8146 -51.4304 7.0755
11.9174 -51.4291 7.0756
12.0201 -51.4279 7.0747
12.1229 -51.4266 7.0701
12.2256 -51.4253 7.0621
12.3283 -51.424 7.0532
12.4311 -51.4227 7.0433
12.5338 -51.4214 7.0291
12.6366 -51.4201 7.0097
12.7394 -51.4187 6.9901
12.8422 -51.4174 6.9801
12.945 -51.4162 6.9792
13.0478 -51.4149 6.9737
13.1506 -51.4136 6.9637
13.2534 -51.4123 6.954
13.3562 -51.411 6.9411
13.4591 -51.4097 6.926
13.5619 -51.4084 6.9201
13.6647 -51.4072 6.9281
13.7675 -51.406 6.9428
13.8702 -51.4048 6.9588
13.9729 -51.4036 6.975
14.0757 -51.4023 6.9811
14.1785 -51.401 6.9654
14.2815 -51.3996 6.9394
14.3844 -51.3983 6.9256
14.4872 -51.3971 6.9275
14.59 -51.3958 6.9333
14.6928 -51.3946 6.9344
14.7957 -51.3933 6.9279
14.8986 -51.392 6.9145
15.0016 -51.3907 6.901
15.1045 -51.3894 6.8953
15.2073 -51.3881 6.896
15.3101 -51.3869 6.8958
15.413 -51.3856 6.8897
15.516 -51.3843 6.8759
15.6191 -51.3829 6.8557
15.7223 -51.3816 6.8342
15.8254 -51.3802 6.8159
15.9285 -51.3789 6.7984
16.0315 -51.3776 6.7834
16.1345 -51.3763 6.7788
16.2374 -51.375 6.7769
16.3405 -51.3737 6.7643
16.4436 -51.3724 6.7474
16.5468 -51.3711 6.7298
16.6501 -51.3697 6.7056
16.7534 -51.3684 6.685
16.8564 -51.3671 6.678
16.9594 -51.3658 6.6779
17.0623 -51.3645 6.6804
17.1651 -51.3633 6.6881
17.2678 -51.3621 6.6999
17.3706 -51.3609 6.711
17.4734 -51.3596 6.7133
17.5765 -51.3583 6.7063
17.6796 -51.3571 6.7013
17.7826 -51.3558 6.6981
17.8857 -51.3545 6.6867
17.9892 -51.3531 6.6644
18.0928 -51.3517 6.6314
18.1965 -51.3503 6.5967
18.3 -51.349 6.5747
18.4032 -51.3477 6.5675
18.5062 -51.3464 6.5671
18.6093 -51.3451 6.563
18.7126 -51.3438 6.5527
18.8159 -51.3425 6.5378
18.9196 -51.3411 6.5124
19.0234 -51.3397 6.4819
19.127 -51.3384 6.4569
19.2308 -51.337 6.4285
19.3351 -51.3355 6.3812
19.4398 -51.334 6.3198
19.5446 -51.3325 6.2573
19.6494 -51.331 6.1966
19.7542 -51.3294 6.1383
19.8587 -51.328 6.0913
19.9628 -51.3266 6.0611
20.0667 -51.3252 6.0382
20.1708 -51.3238 6.0091
20.2753 -51.3224 5.9677
20.38 -51.3209 5.9186
20.4845 -51.3195 5.8791
20.5885 -51.3181 5.8569
20.6925 -51.3168 5.8332
20.7973 -51.3153 5.7872
20.9026 -51.3138 5.7284
21.0074 -51.3123 5.6825
21.1118 -51.3109 5.653
21.2164 -51.3095 5.6172
21.3219 -51.308 5.5553
21.4268 -51.3065 5.5122
-15.8322 -51.865 5.1978
-15.6981 -51.8644 5.4784
-15.5701 -51.8636 5.7046
-15.4473 -51.8627 5.8838
-15.3293 -51.8617 6.0202
-15.2138 -51.8607 6.1336
-15.0996 -51.8596 6.2361
-14.9873 -51.8585 6.3214
-14.8767 -51.8574 6.3914
-14.7679 -51.8563 6.4447
-14.662 -51.8551 6.4704
-14.5589 -51.8538 6.4702
-14.4565 -51.8525 6.4626
-14.353 -51.8513 6.4659
-14.2475 -51.8501 6.4888
-14.1408 -51.8489 6.5236
-14.0346 -51.8477 6.5532
-13.9296 -51.8465 6.5721
-13.8251 -51.8452 6.5855
-13.7209 -51.844 6.5969
-13.6164 -51.8427 6.6106
-13.5113 -51.8415 6.6305
-13.4056 -51.8403 6.6572
-13.2994 -51.8391 6.6887
-13.1935 -51.8379 6.7172
-13.0889 -51.8367 6.733
-12.9856 -51.8355 6.7354
-12.8831 -51.8342 6.7305
-12.7807 -51.8329 6.7246
-12.6779 -51.8316 6.7213
-12.5748 -51.8304 6.7221
-12.4717 -51.8291 6.7231
-12.3691 -51.8279 6.7192
-12.2671 -51.8266 6.7082
-12.1657 -51.8253 6.6914
-12.064 -51.824 6.6773
-11.9612 -51.8227 6.6752
-11.8575 -51.8215 6.682
-11.7534 -51.8202 6.6936
-11.6489 -51.819 6.7089
-11.5446 -51.8178 6.7233
-11.4407 -51.8165 6.733
-11.3371 -51.8153 6.7393
-11.2336 -51.814 6.7448
-11.1298 -51.8128 6.7538
-11.0259 -51.8116 6.7635
-10.9231 -51.8103 6.7618
-10.821 -51.809 6.7522
-10.7183 -51.8078 6.7482
-10.615 -51.8065 6.7521
-10.511 -51.8053 6.7634
-10.4067 -51.804 6.779
-10.3022 -51.8028 6.7963
-10.1973 -51.8016 6.8184
-10.0927 -51.8004 6.8369
-9.9896 -51.7991 6.8384
-9.8871 -51.7979 6.8337
-9.7836 -51.7966 6.8399
-9.6794 -51.7954 6.8542
-9.5754 -51.7942 6.8673
-9.4716 -51.7929 6.8779
-9.3675 -51.7917 6.8914
-9.2626 -51.7905 6.9155
-9.1567 -51.7893 6.951
-9.0508 -51.7882 6.9872
-8.9459 -51.787 7.011
-8.8424 -51.7857 7.0189
-8.7394 -51.7845 7.0212
-8.6357 -51.7832 7.0317
-8.5307 -51.7821 7.058
-8.4253 -51.7809 7.089
-8.3214 -51.7796 7.1032
-8.2189 -51.7784 7.0989
-8.1166 -51.7771 7.0922
-8.0139 -51.7758 7.0914
-7.9106 -51.7746 7.0967
-7.8072 -51.7734 7.1047
-7.7035 -51.7721 7.1163
-7.5994 -51.7709 7.1332
-7.4953 -51.7697 7.1494
-7.3923 -51.7684 7.1524
-7.2902 -51.7672 7.1437
-7.1879 -51.7659 7.1376
-7.0851 -51.7646 7.1377
-6.9825 -51.7634 7.1348
-6.8804 -51.7621 7.1263
-6.7784 -51.7608 7.1159
-6.6765 -51.7595 7.1029
-6.5751 -51.7582 7.0838
-6.4742 -51.7569 7.0592
-6.3731 -51.7556 7.0351
-6.2718 -51.7543 7.0137
-6.1706 -51.753 6.9917
-6.0692 -51.7516 6.9719
-5.967 -51.7504 6.9636
-5.8634 -51.7491 6.9731
-5.7589 -51.7479 6.9964
-5.6543 -51.7467 7.0218
-5.5501 -51.7455 7.0426
-5.4461 -51.7443 7.0599
-5.3426 -51.7431 7.0694
-5.2399 -51.7418 7.0677
-5.1376 -51.7406 7.0611
-5.0347 -51.7393 7.0628
-4.9307 -51.7381 7.0802
-4.8262 -51.7369 7.1054
-4.7225 -51.7357 7.1204
-4.6202 -51.7344 7.113
-4.5187 -51.7331 7.0935
-4.4162 -51.7318 7.089
-4.3123 -51.7306 7.1064
-4.208 -51.7294 7.1305
-4.104 -51.7282 7.1496
-4.0004 -51.727 7.1631
-3.8968 -51.7258 7.1764
-3.7931 -51.7246 7.1908
-3.6896 -51.7233 7.2037
-3.5864 -51.7221 7.2106
-3.4839 -51.7208 7.2072
-3.3821 -51.7195 7.1932
-3.2802 -51.7183 7.179
-3.1776 -51.717 7.1778
-3.074 -51.7158 7.191
-2.97 -51.7146 7.213
-2.8655 -51.7134 7.2423
-2.761 -51.7122 7.2731
-2.657 -51.711 7.2949
-2.5538 -51.7098 7.3036
-2.4511 -51.7085 7.3049
-2.3483 -51.7073 7.3065
-2.2458 -51.706 7.3031
-2.1439 -51.7047 7.2895
-2.0417 -51.7035 7.2811
-1.9384 -51.7022 7.2929
-1.8343 -51.701 7.3186
-1.7304 -51.6999 7.3411
-1.6271 -51.6986 7.3527
-1.5242 -51.6974 7.3574
-1.4216 -51.6961 7.3563
-1.3193 -51.6949 7.3492
-1.2171 -51.6936 7.3418
-1.1146 -51.6923 7.3395
-1.0119 -51.6911 7.3391
-0.9095 -51.6898 7.3359
-0.807 -51.6885 7.3314
-0.7046 -51.6873 7.3277
-0.6022 -51.686 7.3223
-0.4999 -51.6847 7.3153
-0.3975 -51.6834 7.3095
-0.295 -51.6822 7.3068
-0.1924 -51.6809 7.305
-0.0901 -51.6796 7.2981
0.0119 -51.6784 7.2841
0.1137 -51.6771 7.2681
0.2159 -51.6758 7.2578
