55.54 8.8489 5.3868
55.6492 8.8568 5.3627
55.7564 8.8619 5.3505
55.8638 8.8674 5.3368
55.9716 8.8733 5.3209
56.0773 8.8762 5.3181
56.1809 8.8762 5.3275
56.2843 8.8759 5.3386
56.3884 8.8766 5.3452
56.494 8.8794 5.3425
56.6007 8.8838 5.3336
56.7066 8.8869 5.3299
56.8105 8.8874 5.3375
56.9137 8.8868 5.3495
57.0179 8.8877 5.3553
57.1231 8.8899 5.3553
57.2283 8.892 5.356
57.3336 8.8944 5.3552
57.4398 8.8979 5.35
57.5456 8.9009 5.3467
57.6494 8.9012 5.355
57.752 8.8999 5.3701
57.8553 8.8995 5.3816
57.9592 8.9 5.389
58.0634 8.9009 5.395
58.1689 8.9034 5.3936
58.2767 8.9091 5.3791
58.3856 8.9162 5.3585
58.4933 8.9218 5.3445
58.5984 8.9237 5.3458
58.7009 8.9223 5.3614
58.8032 8.9206 5.3783
58.9078 8.922 5.3821
59.0157 8.9277 5.3672
59.1251 8.9353 5.3445
59.2329 8.9409 5.3305
59.3388 8.944 5.3271
59.444 8.9461 5.3277
59.5491 8.9481 5.3289
59.6545 8.9504 5.3286
59.7609 8.9541 5.3227
59.8689 8.9597 5.3083
59.978 8.9669 5.2875
60.0853 8.9717 5.2766
60.1878 8.9703 5.2924
60.2883 8.9663 5.3192
60.3908 8.9648 5.3349
60.4972 8.9685 5.3291
60.5931 8.9587 5.3804
30.8634 8.0407 6.3122
30.9632 8.0287 6.3719
31.0612 8.011 6.4563
31.1605 7.9978 6.5207
31.2623 7.9926 6.5512
31.3659 7.9937 6.555
31.4706 7.998 6.5445
31.5758 8.0038 6.5278
31.681 8.0099 6.5099
31.7859 8.0146 6.4976
31.8897 8.0162 6.4991
31.9929 8.0156 6.5098
32.0962 8.0156 6.5178
32.1998 8.0164 6.5227
32.3033 8.0169 6.5289
32.4069 8.0176 6.5341
32.5109 8.0196 6.5336
32.6154 8.0231 6.5268
32.7205 8.0287 6.5111
32.8267 8.037 6.4835
32.9327 8.0451 6.4569
33.0376 8.0495 6.4465
33.1417 8.0517 6.4451
33.2458 8.054 6.4434
33.3498 8.0559 6.4436
33.4533 8.0563 6.4504
33.5564 8.0556 6.4614
33.6601 8.0566 6.4656
33.7649 8.0606 6.4565
33.8701 8.0661 6.4415
33.975 8.0705 6.4309
34.079 8.0723 6.4314
34.1822 8.072 6.441
34.2855 8.0719 6.4499
34.3892 8.0728 6.4542
34.4929 8.0737 6.4585
34.5965 8.0744 6.464
34.7 8.0751 6.4696
34.8035 8.0754 6.4766
34.9067 8.0751 6.4859
35.0097 8.0742 6.4983
35.1123 8.0725 6.5142
35.2153 8.0716 6.5262
35.3197 8.0744 6.5225
35.4251 8.0802 6.5063
35.5302 8.0849 6.4946
35.6344 8.0873 6.4926
35.7386 8.0894 6.4919
35.8431 8.0926 6.4866
35.9478 8.0962 6.4795
36.0521 8.0989 6.4765
36.1558 8.0997 6.4815
36.259 8.0994 6.491
36.3626 8.1004 6.4954
36.4672 8.1037 6.4898
36.5716 8.1065 6.4863
36.6745 8.1054 6.4991
36.777 8.1035 6.5159
36.8815 8.1064 6.5122
36.9882 8.1149 6.4839
37.0954 8.1246 6.4509
37.2017 8.1318 6.4285
37.3071 8.1371 6.4144
37.4121 8.1411 6.4055
37.5159 8.1424 6.4088
37.6188 8.1412 6.4221
37.7221 8.1413 6.4303
37.8265 8.1438 6.428
37.9309 8.1465 6.4252
38.0347 8.1476 6.429
38.1383 8.1484 6.4343
38.2423 8.1501 6.4353
38.3465 8.1521 6.4353
38.4502 8.1532 6.4395
38.5541 8.1544 6.4427
38.6587 8.1575 6.4382
38.7637 8.1614 6.4298
38.8685 8.165 6.423
38.9732 8.1682 6.418
39.0777 8.171 6.4147
39.1821 8.1735 6.4127
39.2867 8.1763 6.4091
39.3919 8.1808 6.3987
39.4981 8.1872 6.3799
39.6042 8.1935 6.3615
39.7091 8.1971 6.3547
39.8128 8.1978 6.3602
39.916 8.1976 6.3698
40.019 8.1969 6.3814
40.1212 8.1944 6.4008
40.2228 8.1907 6.4255
40.3248 8.1879 6.4461
40.4275 8.1867 6.4601
40.5307 8.1865 6.4694
40.6348 8.1883 6.4705
40.7402 8.1929 6.4594
40.8459 8.1983 6.4452
40.9504 8.2009 6.4428
41.0536 8.2008 6.4521
41.1564 8.1998 6.4651
41.2595 8.1995 6.475
41.3637 8.2013 6.4761
41.469 8.2056 6.4664
41.5746 8.2107 6.4534
41.6792 8.2133 6.4509
41.7822 8.2128 6.4616
41.8855 8.213 6.4698
41.9903 8.2162 6.4648
42.0958 8.2208 6.4541
42.2009 8.2245 6.4469
42.3061 8.2286 6.4382
42.4126 8.235 6.4195
42.5201 8.2437 6.3911
42.6286 8.2542 6.3552
42.737 8.2645 6.3199
42.8437 8.2713 6.2997
42.9474 8.2721 6.3049
43.05 8.2708 6.3195
43.1549 8.2739 6.3148
43.2624 8.2822 6.2884
43.3703 8.2912 6.2585
43.4773 8.2984 6.2366
43.5827 8.3025 6.228
43.6871 8.3047 6.2276
43.792 8.3077 6.2236
43.898 8.3129 6.2102
44.0046 8.3192 6.1922
44.1108 8.3246 6.178
44.2161 8.3283 6.1709
44.3205 8.3304 6.1711
44.4238 8.3304 6.18
44.5269 8.3298 6.1914
44.631 8.3313 6.1938
44.7362 8.3348 6.1879
44.8417 8.3389 6.1793
44.9476 8.3437 6.168
45.054 8.3495 6.1521
45.1604 8.3552 6.1367
45.2655 8.3583 6.1321
45.3692 8.359 6.1382
45.4726 8.3592 6.1464
45.5764 8.3599 6.1525
45.6808 8.3618 6.1532
45.7862 8.3656 6.1461
45.8918 8.3698 6.137
45.9973 8.3737 6.1293
46.1027 8.3774 6.1227
46.2077 8.3804 6.1188
46.3124 8.3828 6.1178
46.4164 8.384 6.1215
46.5192 8.383 6.1349
46.6216 8.3813 6.1514
46.7252 8.3817 6.1585
46.8297 8.3839 6.1584
46.9337 8.3851 6.1621
47.0375 8.3859 6.1678
47.1419 8.3878 6.1689
47.2466 8.3903 6.1673
47.3512 8.3924 6.1673
47.4556 8.3943 6.1685
47.5596 8.3954 6.1726
47.6629 8.3955 6.1816
47.7662 8.3954 6.1908
47.8704 8.397 6.1932
47.976 8.4009 6.1857
48.0826 8.4066 6.1707
48.1896 8.4128 6.1532
48.2962 8.4184 6.1384
48.4018 8.4222 6.1313
48.5062 8.4241 6.1325
48.6102 8.4251 6.1371
48.7145 8.4269 6.1388
48.8196 8.4298 6.1356
48.9256 8.4343 6.1256
49.0322 8.4398 6.1111
49.1382 8.4443 6.1012
49.2434 8.4473 6.0974
49.3489 8.4508 6.0916
49.4547 8.455 6.0832
49.5609 8.4596 6.0726
49.6678 8.4655 6.0564
49.7748 8.4715 6.0401
49.8806 8.4754 6.0326
49.9857 8.4783 6.0298
50.091 8.4815 6.0254
50.1957 8.4836 6.0255
50.2991 8.4836 6.0347
50.4037 8.4858 6.0349
50.5134 8.4959 6.0007
50.6265 8.5114 5.9437
50.7378 8.5241 5.8987
50.8451 8.5303 5.8816
50.9501 8.5329 5.8801
51.0543 8.5341 5.884
51.1583 8.5349 5.8899
51.2631 8.5372 5.8893
51.3703 8.5432 5.8731
51.4788 8.551 5.849
51.5867 8.5581 5.8283
51.6936 8.5635 5.8144
51.7987 8.5661 5.8127
51.9015 8.5652 5.826
52.0039 8.5636 5.8422
52.1075 8.5638 5.8505
52.2114 8.5645 5.8569
52.3142 8.5636 5.8701
52.4166 8.5622 5.8857
52.5195 8.5613 5.8988
52.6226 8.5608 5.9101
52.7264 8.5615 5.9164
52.8324 8.5655 5.9089
52.9414 8.574 5.882
53.0522 8.5852 5.8438
53.1632 8.5966 5.8045
53.2727 8.6056 5.7755
53.3791 8.6101 5.7658
53.4834 8.6113 5.7701
53.5891 8.6147 5.7648
53.6992 8.6246 5.7322
53.8116 8.6378 5.6852
53.9238 8.6507 5.6396
54.0346 8.6615 5.603
54.1439 8.67 5.5763
54.2521 8.6768 5.5564
54.3581 8.6805 5.5501
54.4616 8.6805 5.5599
54.5656 8.6811 5.5667
54.6727 8.6864 5.5537
54.7813 8.6937 5.532
54.8888 8.6995 5.5167
54.9951 8.7034 5.5093
55.1007 8.7065 5.5059
55.2063 8.7094 5.503
55.3132 8.7142 5.4918
55.423 8.7231 5.4636
55.5339 8.7336 5.4282
55.6428 8.7412 5.4053
55.7495 8.7456 5.3963
55.8571 8.7512 5.3818
55.9661 8.7589 5.3586
56.0731 8.7637 5.3476
56.1774 8.7646 5.3531
56.2809 8.7646 5.363
56.3852 8.7655 5.3685
56.4911 8.7688 5.3641
56.5976 8.7728 5.3566
56.7025 8.7747 5.3582
56.8062 8.7749 5.3668
56.9105 8.7758 5.3726
57.0157 8.7781 5.3723
57.1213 8.7809 5.37
57.2266 8.7831 5.3699
57.3319 8.7855 5.3693
57.4384 8.7895 5.362
57.5449 8.7935 5.3545
57.6496 8.7951 5.3575
57.7528 8.7945 5.3693
57.8558 8.7938 5.3822
57.9591 8.7934 5.3935
58.0629 8.7936 5.402
58.1682 8.796 5.4016
58.2757 8.8012 5.3889
58.384 8.8076 5.3714
58.4912 8.8125 5.3603
58.596 8.8141 5.363
58.6983 8.8124 5.3797
58.8006 8.8106 5.3969
58.9051 8.812 5.4008
59.0118 8.8161 5.393
59.1187 8.8205 5.3838
59.2253 8.8244 5.3768
59.3317 8.8281 5.3705
59.4382 8.8319 5.3641
59.5447 8.8358 5.3573
59.6517 8.8403 5.3478
59.7595 8.8457 5.3342
59.8683 8.8525 5.315
59.9781 8.8606 5.2904
60.0855 8.8654 5.2796
60.1875 8.8634 5.2978
60.289 8.8606 5.3192
60.3948 8.8635 5.3169
60.5002 8.8658 5.3165
60.5969 8.857 5.3637
30.9578 7.9023 6.4645
31.0578 7.8914 6.5193
31.1578 7.8804 6.5748
31.2599 7.8765 6.5998
31.3642 7.8797 6.5942
31.4696 7.8863 6.5739
31.5752 7.8935 6.5511
31.6806 7.9003 6.53
31.7857 7.9056 6.5155
31.8895 7.9071 6.5171
31.9927 7.9066 6.5277
32.0964 7.9078 6.5306
32.2007 7.9107 6.5262
32.3047 7.9129 6.5253
32.4084 7.914 6.5287
32.5122 7.9154 6.5307
32.6163 7.9179 6.5283
32.7211 7.9224 6.5173
32.827 7.9298 6.4936
32.933 7.9379 6.467
33.0382 7.9431 6.4527
33.1424 7.9458 6.4496
33.2465 7.9479 6.4485
33.3504 7.9496 6.4497
33.4538 7.9496 6.4579
33.5569 7.9489 6.4693
33.6606 7.9502 6.472
33.7657 7.9551 6.459
33.8714 7.9619 6.4382
33.9767 7.9672 6.4239
34.0805 7.9686 6.4261
34.1834 7.9673 6.44
34.2866 7.9669 6.4501
34.3904 7.9681 6.4532
34.4941 7.9693 6.4566
34.5977 7.97 6.4617
34.7013 7.9707 6.4671
34.8046 7.9707 6.4757
34.9076 7.9699 6.4875
35.0106 7.969 6.4996
35.1135 7.9679 6.5127
35.2166 7.9674 6.5234
35.3208 7.9697 6.522
35.4258 7.9743 6.5105
35.5304 7.9777 6.5043
35.6342 7.9791 6.5066
35.7384 7.9815 6.5049
35.8434 7.9859 6.4944
35.9486 7.9907 6.4823
36.0531 7.9938 6.4771
36.1566 7.9943 6.4834
36.2594 7.993 6.4977
36.3625 7.9925 6.5081
36.4666 7.9946 6.5076
36.5708 7.9968 6.5067
36.6738 7.9962 6.5177
36.7765 7.9946 6.5329
36.8808 7.9973 6.53
36.9876 8.0061 6.5008
37.0951 8.0163 6.4653
37.2013 8.0236 6.4426
37.3066 8.0284 6.4303
37.4112 8.0317 6.425
37.5146 8.0317 6.4331
37.6171 8.0298 6.4499
37.7204 8.0297 6.4588
37.8248 8.0324 6.456
37.9292 8.0352 6.4525
38.0332 8.0369 6.4538
38.1372 8.0386 6.455
38.2415 8.0408 6.4539
38.3454 8.0424 6.4559
38.449 8.0431 6.4614
38.5531 8.045 6.462
38.6582 8.049 6.4531
38.7634 8.0535 6.4424
38.8681 8.0568 6.437
38.9725 8.0594 6.4345
39.0771 8.0622 6.4309
39.1819 8.0658 6.4242
39.2872 8.0704 6.4132
39.3931 8.0762 6.3971
39.4995 8.0832 6.3756
39.6059 8.0901 6.3547
39.7111 8.0943 6.3452
39.8148 8.0951 6.3505
39.9179 8.0948 6.3606
40.0212 8.0946 6.3699
40.1237 8.0929 6.386
40.2251 8.0887 6.4127
40.3264 8.0845 6.4394
40.4286 8.0821 6.4586
40.5313 8.0808 6.4727
40.6346 8.0809 6.481
40.7394 8.0843 6.4751
40.8453 8.0899 6.4597
40.9503 8.0937 6.4524
41.0538 8.0942 6.459
41.1567 8.0935 6.4706
41.2601 8.0936 6.4788
41.3643 8.0956 6.479
41.4694 8.0996 6.4708
41.5746 8.1036 6.4625
41.6782 8.1044 6.4677
41.7804 8.1023 6.4855
41.8836 8.102 6.4954
41.989 8.1065 6.4851
42.095 8.1121 6.4697
42.2 8.1159 6.4623
42.3047 8.1188 6.4586
42.4104 8.1237 6.4466
42.5176 8.1318 6.4205
42.6264 8.1428 6.3823
42.7352 8.154 6.3432
42.8418 8.1607 6.3233
42.9454 8.1612 6.3302
43.0484 8.1606 6.3412
43.154 8.1652 6.3304
43.2616 8.1738 6.3024
43.369 8.1819 6.2767
43.4753 8.1876 6.261
43.5806 8.1916 6.253
43.6856 8.1949 6.2477
43.7909 8.1987 6.2402
43.8966 8.2033 6.2297
44.0026 8.2084 6.2165
44.1088 8.2139 6.2017
44.2147 8.2189 6.1893
44.3196 8.2219 6.1856
44.4232 8.2224 6.1923
44.5269 8.2231 6.1982
44.6318 8.226 6.1947
44.7371 8.2297 6.1876
44.8421 8.233 6.1828
44.9473 8.2363 6.1774
45.0533 8.2413 6.1652
45.1598 8.2472 6.1489
45.2652 8.2511 6.1409
45.3692 8.2523 6.1451
45.4724 8.2519 6.1555
45.5753 8.2512 6.1677
45.6793 8.2524 6.1714
45.7855 8.2576 6.1582
45.8925 8.2644 6.1381
45.9989 8.2698 6.1241
46.1043 8.2736 6.1169
46.2089 8.2759 6.1162
46.3127 8.2767 6.1217
46.4159 8.2765 6.1318
46.5187 8.2754 6.1455
46.6214 8.2744 6.1589
46.7247 8.2742 6.1687
46.8279 8.274 6.1786
46.931 8.2736 6.1896
47.0349 8.2747 6.1938
47.14 8.2779 6.1892
47.2452 8.2811 6.1844
47.3499 8.2835 6.1834
47.4541 8.2851 6.1858
47.5577 8.2856 6.1928
47.6606 8.2848 6.2051
47.7635 8.2842 6.2169
47.868 8.2862 6.2176
47.9745 8.2917 6.203
48.0822 8.2993 6.1799
48.1897 8.3064 6.1586
48.2957 8.3109 6.1483
48.3999 8.3125 6.1507
48.5032 8.3124 6.1604
48.6066 8.3125 6.169
48.7116 8.3154 6.1659
48.8182 8.3209 6.1512
48.9252 8.3271 6.1342
49.0317 8.3324 6.1206
49.1373 8.3362 6.1135
49.2426 8.3394 6.1089
49.3482 8.3432 6.1019
49.4542 8.3475 6.0927
49.5609 8.353 6.0783
49.6682 8.3595 6.0597
49.7741 8.3637 6.051
49.8776 8.364 6.059
49.9811 8.3642 6.0674
50.086 8.3669 6.0654
50.1909 8.3693 6.064
50.2949 8.3704 6.0687
50.4009 8.3747 6.0595
50.5115 8.3862 6.0196
50.6244 8.4015 5.9635
50.7359 8.4146 5.9171
50.8438 8.4217 5.8959
50.949 8.4245 5.8929
51.0532 8.4257 5.8972
51.1575 8.4271 5.9006
51.2634 8.4311 5.8928
51.3712 8.438 5.8727
51.479 8.4449 5.8526
51.586 8.4504 5.8382
51.6928 8.4558 5.8247
51.7987 8.4595 5.8181
51.9018 8.459 5.8294
52.0038 8.4569 5.848
52.1071 8.4567 5.858
52.211 8.4575 5.8643
52.3143 8.4573 5.8743
52.4176 8.4571 5.8845
52.5211 8.4574 5.8928
52.6243 8.457 5.9037
52.7275 8.4566 5.9146
52.8326 8.4593 5.9128
52.9409 8.4667 5.8905
53.0515 8.4776 5.8533
53.162 8.4882 5.8172
53.2705 8.4958 5.7942
53.3765 8.4997 5.787
53.481 8.5013 5.7898
53.5875 8.5058 5.7799
53.6977 8.5158 5.7466
53.8088 8.5271 5.7077
53.9191 8.5373 5.6737
54.0287 8.5463 5.6446
54.1379 8.5547 5.6183
54.2474 8.5634 5.5903
54.3553 8.5699 5.5722
54.4595 8.5709 5.5774
54.563 8.5708 5.5872
54.6693 8.5749 5.5792
54.7777 8.582 5.5586
54.8853 8.5878 5.543
54.9911 8.5911 5.5385
55.0957 8.5926 5.5415
55.2002 8.5941 5.5446
55.3069 8.5986 5.5349
55.4167 8.6076 5.5059
55.5277 8.6182 5.4705
55.6368 8.626 5.4464
55.744 8.6312 5.434
55.8519 8.6374 5.417
55.9609 8.645 5.3941
56.0679 8.6499 5.3828
56.1723 8.6509 5.3878
56.2758 8.6508 5.3979
56.3802 8.652 5.4022
56.4865 8.6558 5.3957
56.5927 8.6595 5.3895
56.6972 8.6607 5.3939
56.8019 8.6624 5.3963
56.9085 8.6665 5.3884
57.0151 8.6706 5.3804
57.1208 8.6736 5.3773
57.2258 8.6756 5.3783
57.3311 8.6779 5.3778
57.4376 8.6819 5.3705
57.5443 8.6862 5.3619
57.6495 8.6884 5.3621
57.7534 8.6887 5.3701
57.8566 8.6883 5.3818
57.9595 8.6874 5.3953
58.0626 8.6867 5.4078
58.1665 8.6872 5.4153
58.2719 8.6897 5.4142
58.3788 8.6941 5.4051
58.486 8.699 5.3939
58.5916 8.7017 5.3918
58.6949 8.7013 5.4033
58.7983 8.7012 5.4133
58.904 8.704 5.411
59.01 8.7072 5.407
59.1147 8.7087 5.4103
59.2192 8.71 5.4145
59.3253 8.7133 5.4099
59.4328 8.7184 5.3979
59.5406 8.724 5.3836
59.6491 8.7304 5.3662
59.7579 8.7371 5.3471
59.8661 8.7432 5.3309
59.9743 8.7491 5.3152
60.0812 8.7534 5.3067
60.1848 8.7534 5.3163
60.2887 8.7538 5.3244
60.3964 8.759 5.3116
60.5035 8.7635 5.3023
60.6064 8.7627 5.3156
30.9556 7.7866 6.5112
31.0557 7.7761 6.5643
31.1566 7.7682 6.6066
31.259 7.7653 6.6276
31.3633 7.7684 6.622
31.4685 7.7747 6.6033
31.574 7.7815 6.5819
31.6796 7.7887 6.5594
31.7849 7.7949 6.5405
31.8892 7.7978 6.5363
31.9927 7.7985 6.5416
32.0968 7.8008 6.5401
32.2013 7.8046 6.5317
32.3057 7.8078 6.5262
32.4096 7.8096 6.5265
32.5134 7.811 6.529
32.6174 7.8129 6.5287
32.722 7.817 6.5196
32.8277 7.8239 6.4978
32.9337 7.8317 6.4728
33.0387 7.8366 6.4598
33.1427 7.8387 6.459
33.2467 7.8405 6.4595
33.3506 7.8423 6.4601
33.4542 7.843 6.4654
33.5577 7.8433 6.4725
33.6617 7.8453 6.4721
33.7667 7.8501 6.4597
33.8723 7.8564 6.4407
33.9774 7.8615 6.427
34.0814 7.8632 6.4284
34.1844 7.8622 6.4408
34.2876 7.8619 6.4507
34.3913 7.8631 6.4539
34.4952 7.8645 6.4562
34.5989 7.8654 6.4606
34.7024 7.8659 6.4666
34.8056 7.8657 6.4758
34.9087 7.865 6.4874
35.0117 7.8642 6.4993
35.1146 7.8632 6.5122
35.2177 7.8626 6.5229
35.3217 7.8647 6.5225
35.4265 7.8685 6.5144
35.5305 7.8704 6.5144
35.6339 7.8705 6.5225
35.7381 7.8731 6.5199
35.8436 7.8788 6.5037
35.9491 7.8846 6.4873
36.0539 7.8883 6.4798
36.1574 7.889 6.4854
36.2599 7.8869 6.5026
36.3625 7.885 6.5196
36.4659 7.8854 6.5261
36.5698 7.8869 6.528
36.673 7.8868 6.5369
36.776 7.886 6.549
36.8804 7.8889 6.5448
36.9872 7.8977 6.5158
37.0947 7.908 6.4798
37.2012 7.9158 6.4548
37.3064 7.9205 6.4431
37.4104 7.9222 6.4446
37.5129 7.9204 6.4608
37.6153 7.9181 6.4793
37.7189 7.9189 6.4844
37.8235 7.9221 6.4788
37.928 7.925 6.4749
38.0321 7.927 6.4753
38.1363 7.9291 6.4745
38.2405 7.9313 6.4738
38.3442 7.9323 6.4779
38.4478 7.933 6.4834
38.5522 7.9355 6.4814
38.6575 7.9403 6.4693
38.7632 7.9458 6.4542
38.8683 7.9501 6.4446
38.9728 7.9529 6.4411
39.0773 7.9555 6.4384
39.1822 7.9592 6.4311
39.2878 7.9645 6.4171
39.394 7.9712 6.3971
39.5007 7.9788 6.373
39.6072 7.986 6.3509
39.7125 7.9902 6.3412
39.8161 7.9908 6.3473
39.9191 7.9903 6.3583
40.0225 7.9905 6.366
40.1255 7.9898 6.3778
40.2271 7.9861 6.4024
40.3281 7.9811 6.4326
40.4297 7.9774 6.4574
40.5319 7.9752 6.4755
40.6348 7.9744 6.4876
40.7391 7.9766 6.4867
40.8447 7.9817 6.4737
40.9498 7.9855 6.466
41.0534 7.9863 6.4715
41.1566 7.9863 6.4801
41.2604 7.9873 6.4846
41.3645 7.9892 6.4853
41.4692 7.9922 6.4814
41.5739 7.9952 6.4769
41.6774 7.9958 6.4833
41.7796 7.9936 6.5014
41.8826 7.9933 6.5118
41.9879 7.9975 6.5023
42.094 8.0033 6.4864
42.1993 8.0076 6.4766
42.304 8.0105 6.4731
42.4091 8.0142 6.466
42.5158 8.0212 6.4446
42.6243 8.0319 6.4075
42.7333 8.0433 6.3676
42.84 8.0501 6.3472
42.9437 8.0509 6.3525
43.0469 8.0509 6.3613
43.1527 8.0559 6.3489
43.2603 8.0644 6.3212
43.3671 8.0713 6.3004
43.4728 8.0759 6.2896
43.5784 8.0805 6.2788
43.6844 8.0856 6.2657
43.7901 8.0904 6.2541
43.8955 8.0943 6.2462
44.0009 8.0985 6.2373
44.1071 8.1038 6.2232
44.2133 8.1094 6.2083
44.3185 8.113 6.2017
44.4226 8.1144 6.2046
44.5267 8.1159 6.207
44.6318 8.1193 6.2017
44.7374 8.1235 6.1924
44.8427 8.1273 6.1851
44.9479 8.1307 6.1796
45.0533 8.1347 6.1716
45.1591 8.1392 6.1609
45.2643 8.1426 6.1553
45.3683 8.1438 6.1593
45.4712 8.1431 6.1713
45.5739 8.1418 6.1859
45.6779 8.1431 6.1895
45.7846 8.1492 6.1721
45.8926 8.1577 6.1448
45.9995 8.1642 6.1262
46.1047 8.1676 6.1204
46.2088 8.169 6.1233
46.3121 8.1689 6.1328
46.4153 8.1686 6.1432
46.519 8.1693 6.1495
46.6227 8.1699 6.1561
46.7253 8.1687 6.1702
46.8273 8.1663 6.1897
46.9299 8.165 6.2043
47.0339 8.1663 6.2076
47.1389 8.1693 6.2041
47.2437 8.1718 6.2022
47.348 8.1737 6.2033
47.4522 8.1752 6.206
47.5557 8.1755 6.2141
47.6581 8.1739 6.2298
47.7608 8.1729 6.2433
47.8657 8.1757 6.2403
47.973 8.1826 6.2201
48.0809 8.1904 6.1957
48.1877 8.1965 6.1787
48.293 8.1997 6.174
48.3968 8.2007 6.1791
48.5 8.2005 6.1893
48.6036 8.201 6.196
48.7093 8.205 6.1883
48.8168 8.212 6.1675
48.9241 8.2188 6.1476
49.0302 8.2234 6.137
49.1358 8.2271 6.1304
49.2415 8.2311 6.1223
49.3472 8.235 6.1146
49.4533 8.2396 6.1045
49.5607 8.2462 6.0851
49.6682 8.253 6.0653
49.7728 8.2551 6.0657
49.8745 8.2525 6.0861
49.9768 8.2507 6.1029
50.0815 8.2531 6.1022
50.1873 8.257 6.0945
50.2933 8.2612 6.0857
50.401 8.2682 6.0649
50.511 8.2789 6.0284
50.6225 8.292 5.9818
50.7335 8.3041 5.9393
50.8417 8.3118 5.9154
50.9473 8.3153 5.9097
51.0519 8.3171 5.9112
51.1569 8.3197 5.9094
51.2635 8.3248 5.8972
51.3712 8.3315 5.8779
51.4784 8.3374 5.8617
51.5852 8.3426 5.8487
51.6924 8.3485 5.833
51.7987 8.353 5.823
51.9019 8.3527 5.8336
52.0036 8.35 5.8544
52.1062 8.3487 5.8694
52.2094 8.3485 5.8796
52.3127 8.3483 5.8898
52.4164 8.3488 5.8973
52.5207 8.3502 5.9006
52.6249 8.3514 5.9047
52.7291 8.3527 5.9086
52.835 8.3565 5.9018
52.9433 8.3639 5.8795
53.0527 8.3729 5.8506
53.1609 8.3801 5.8292
53.2679 8.3854 5.8157
53.3744 8.39 5.8057
53.4802 8.3935 5.7998
53.5876 8.3994 5.784
53.6971 8.4084 5.7549
53.8064 8.4171 5.7275
53.9149 8.4246 5.7049
54.0234 8.4319 5.6829
54.1326 8.4403 5.6563
54.2437 8.4514 5.6183
54.3537 8.461 5.5869
54.4591 8.4637 5.5846
54.5625 8.4636 5.5947
54.6678 8.4661 5.5933
54.7753 8.4719 5.5782
54.8826 8.4775 5.5638
54.9882 8.4804 5.5609
55.0918 8.4805 5.5697
55.1952 8.4804 5.5796
55.3012 8.4839 5.5742
55.4104 8.4921 5.5489
55.5208 8.5018 5.5167
55.6304 8.5104 5.4894
55.7392 8.5178 5.4674
55.848 8.5253 5.4449
55.9563 8.5319 5.4262
56.0622 8.5352 5.4215
56.1662 8.5358 5.4287
56.2696 8.5357 5.4388
56.3739 8.5367 5.444
56.4797 8.5398 5.4403
56.5858 8.5433 5.435
56.6912 8.546 5.4331
56.7983 8.5508 5.4222
56.907 8.5579 5.4012
57.0149 8.5638 5.3854
57.1208 8.567 5.3817
57.2256 8.5687 5.3838
57.3307 8.5708 5.3845
57.4366 8.574 5.3803
57.5426 8.5773 5.3758
57.6476 8.5792 5.3773
57.7519 8.5801 5.3831
57.8555 8.5803 5.3922
57.9582 8.5791 5.4069
58.0603 8.5771 5.4247
58.163 8.576 5.4393
58.2672 8.5769 5.4451
58.3738 8.5809 5.4374
58.4818 8.5869 5.4217
58.5878 8.5901 5.4174
58.6913 8.5901 5.4271
58.7961 8.5917 5.43
58.9028 8.5959 5.4219
59.0083 8.5985 5.4205
59.1114 8.5979 5.4324
59.2145 8.5973 5.4447
59.3201 8.6 5.4431
59.4278 8.6055 5.4291
59.5361 8.6116 5.4126
59.6451 8.6187 5.392
59.7546 8.6264 5.3686
59.8626 8.6321 5.3541
59.9695 8.6364 5.3456
60.076 8.6402 5.3389
60.1814 8.6426 5.3386
60.2876 8.6458 5.3342
60.3956 8.6516 5.3195
60.5032 8.6567 5.3074
60.6091 8.6595 5.3048
30.9561 7.6798 6.5195
31.0549 7.665 6.5919
31.1563 7.659 6.6258
31.2589 7.6567 6.644
31.3629 7.6587 6.6433
31.4674 7.6628 6.6337
31.5725 7.6684 6.6177
31.6782 7.6761 6.5928
31.7841 7.6841 6.5666
31.8888 7.6886 6.5552
31.9927 7.6903 6.5559
32.0968 7.6928 6.5537
32.2013 7.6964 6.5461
32.3058 7.6999 6.5394
32.4099 7.7023 6.5374
32.5137 7.7039 6.5388
32.6179 7.7064 6.536
32.723 7.7117 6.5212
32.8289 7.7195 6.4958
32.9347 7.7267 6.473
33.0392 7.7301 6.4669
33.1426 7.7304 6.4736
33.2463 7.7313 6.4781
33.3503 7.7334 6.4774
33.4544 7.7356 6.4763
33.5585 7.7378 6.4752
33.6629 7.7407 6.471
33.7676 7.7446 6.4624
33.8724 7.7488 6.4527
33.9771 7.7526 6.4447
34.0814 7.7553 6.4412
34.1852 7.7566 6.4438
34.2888 7.7574 6.4486
34.3926 7.7587 6.4517
34.4964 7.76 6.4545
34.6 7.7609 6.459
34.7035 7.7611 6.4662
34.8067 7.7608 6.476
34.9097 7.7602 6.4871
35.0127 7.7593 6.4993
35.1155 7.7579 6.514
35.2185 7.7571 6.5256
35.3225 7.759 6.5259
35.427 7.7621 6.5209
35.5306 7.7629 6.5258
35.6336 7.7622 6.5371
35.7379 7.7649 6.5341
35.8437 7.7714 6.5146
35.9494 7.7778 6.4956
36.0543 7.7818 6.4866
36.1581 7.7831 6.4896
36.2607 7.7814 6.5055
36.3629 7.7786 6.5257
36.4658 7.7776 6.5386
36.5694 7.7785 6.5432
36.673 7.7793 6.5482
36.7765 7.7798 6.5547
36.881 7.7829 6.5498
36.9872 7.7903 6.5267
37.0942 7.7995 6.4953
37.2009 7.8078 6.468
37.3063 7.813 6.4541
37.4099 7.8137 6.4597
37.512 7.8108 6.4807
37.6143 7.8085 6.4994
37.7182 7.8099 6.5017
37.823 7.8137 6.4941
37.9276 7.8168 6.4893
38.0318 7.8189 6.4887
38.136 7.8212 6.4873
38.2402 7.8232 6.4875
38.3437 7.8239 6.4929
38.4473 7.8247 6.4981
38.5518 7.8274 6.495
38.6573 7.8326 6.4814
38.7632 7.8388 6.4632
38.8688 7.844 6.4493
38.9736 7.8476 6.4426
39.0781 7.8503 6.4396
39.1829 7.8536 6.434
39.2883 7.8586 6.4213
39.3946 7.8653 6.4012
39.5012 7.8726 6.3781
39.6074 7.8792 6.3587
39.7127 7.8835 6.3486
39.8165 7.8848 6.3519
39.9197 7.8844 6.3621
40.023 7.8845 6.3705
40.1262 7.8843 6.3802
40.2283 7.8816 6.4002
40.3294 7.8768 6.4298
40.4306 7.8723 6.4578
40.5328 7.8701 6.476
40.636 7.8699 6.4856
40.7399 7.8713 6.4882
40.8445 7.8743 6.4841
40.9489 7.8768 6.4821
41.0525 7.8775 6.4881
41.156 7.8781 6.4943
41.26 7.8796 6.4963
41.3642 7.8816 6.4967
41.4686 7.884 6.4949
41.5731 7.8868 6.4918
41.6769 7.8879 6.4958
41.7796 7.8868 6.5096
41.8827 7.8865 6.5195
41.9875 7.8897 6.5145
42.0933 7.895 6.5006
42.1987 7.8996 6.4898
42.3035 7.9026 6.4855
42.4083 7.9059 6.4804
42.5146 7.912 6.4629
42.6227 7.9218 6.4296
42.7314 7.9326 6.3918
42.8384 7.9401 6.3686
42.9424 7.9415 6.3711
43.0453 7.9408 6.3831
43.1503 7.9444 6.3768
43.2576 7.9522 6.352
43.3643 7.9589 6.3321
43.4701 7.9638 6.3198
43.5765 7.9698 6.3028
43.6834 7.9768 6.2817
43.7896 7.9825 6.2663
43.8948 7.9862 6.2592
44 7.9898 6.2526
44.1059 7.9949 6.2399
44.2121 8.0003 6.2253
44.3175 8.0042 6.2176
44.4218 8.0062 6.2179
44.5261 8.0081 6.2189
44.6311 8.0111 6.2148
44.7368 8.0157 6.204
44.8432 8.0213 6.1888
44.9491 8.0263 6.1765
45.0542 8.0296 6.1714
45.1588 8.0318 6.1707
45.2629 8.0334 6.173
45.3665 8.0338 6.1802
45.4694 8.0329 6.193
45.5722 8.0321 6.2057
45.6766 8.0341 6.2062
45.7834 8.0404 6.1881
45.8913 8.0487 6.1612
45.9984 8.0556 6.1409
46.1039 8.0594 6.1336
46.208 8.0608 6.1366
46.3113 8.0607 6.1459
46.415 8.0614 6.1523
46.5198 8.0641 6.1496
46.6244 8.0663 6.1491
46.7269 8.0648 6.1646
46.8283 8.0614 6.1883
46.9307 8.0599 6.2041
47.0345 8.0607 6.2096
47.1385 8.0619 6.2137
47.2422 8.0627 6.2193
47.3465 8.0643 6.2216
47.4511 8.0667 6.2206
47.5547 8.0671 6.2277
47.6567 8.065 6.246
47.7593 8.0638 6.2604
47.8645 8.0671 6.2552
47.9718 8.074 6.2347
48.0789 8.0805 6.216
48.1843 8.084 6.2101
48.2888 8.0861 6.2104
48.393 8.0877 6.2125
48.4972 8.0892 6.2157
48.6018 8.0913 6.2155
48.7078 8.096 6.2048
48.8153 8.1031 6.1836
48.9225 8.1095 6.165
49.0282 8.1134 6.1574
49.1335 8.1168 6.1523
49.2393 8.1209 6.1436
49.3454 8.1255 6.1334
49.4522 8.1313 6.1178
49.5603 8.1391 6.0934
49.6675 8.1454 6.0755
49.7713 8.1461 6.0817
49.8728 8.1432 6.1036
49.9753 8.1418 6.1189
50.0801 8.1443 6.1174
50.1863 8.1489 6.1069
50.2931 8.1544 6.0926
50.4008 8.1614 6.0717
50.5099 8.1707 6.0412
50.6204 8.1821 6.0017
50.7309 8.1935 5.962
50.8395 8.2017 5.9359
50.9455 8.2059 5.9275
51.0504 8.2083 5.9266
51.1559 8.2116 5.9214
51.2625 8.2167 5.9092
51.3696 8.2224 5.8938
51.4767 8.2282 5.8783
51.5839 8.2341 5.8626
51.691 8.2398 5.8472
51.797 8.2438 5.8396
51.9005 8.2439 5.8484
52.0026 8.242 5.8662
52.105 8.2404 5.8824
52.2076 8.2392 5.8967
52.3102 8.238 5.9113
52.4134 8.2378 5.9215
52.518 8.2396 5.9233
52.6237 8.2431 5.9178
52.7302 8.2478 5.9068
52.838 8.2544 5.8879
52.9469 8.2627 5.8617
53.0549 8.2697 5.8411
53.1607 8.2733 5.8353
53.2662 8.2764 5.8314
53.373 8.2814 5.8193
53.4804 8.2874 5.8032
53.5884 8.2941 5.7836
53.6966 8.3012 5.7629
53.804 8.307 5.7474
53.9111 8.3125 5.7334
54.0189 8.3188 5.7156
54.1284 8.3277 5.6873
54.2404 8.3401 5.6436
54.3518 8.3516 5.6037
54.4585 8.3563 5.5932
54.5623 8.3568 5.6004
54.6671 8.3586 5.6021
54.774 8.3635 5.5907
54.8812 8.3689 5.577
54.9867 8.3717 5.5747
55.0896 8.3708 5.5879
55.1918 8.369 5.6053
55.2966 8.3709 5.6064
55.4048 8.3776 5.5875
55.5145 8.3863 5.5595
55.6244 8.3954 5.5302
55.7342 8.4043 5.5015
55.8437 8.4127 5.4754
55.9514 8.4185 5.4598
56.0566 8.4208 5.4596
56.1604 8.4212 5.4673
56.264 8.4213 5.4766
56.3678 8.4216 5.4847
56.4724 8.4232 5.4875
56.5785 8.4267 5.4821
56.6859 8.4321 5.4688
56.7949 8.4395 5.4465
56.905 8.4485 5.4175
57.0136 8.4555 5.3972
57.1195 8.4587 5.3933
57.2243 8.4605 5.3953
57.3294 8.4626 5.3959
57.4347 8.4648 5.3958
57.5393 8.4663 5.399
57.6434 8.4669 5.406
57.7476 8.4678 5.4118
57.8516 8.4684 5.4189
57.9539 8.4668 5.4356
58.0553 8.4639 5.4575
58.1581 8.463 5.4713
58.2633 8.4652 5.4711
58.371 8.4707 5.4574
58.4793 8.4771 5.4398
58.5847 8.4795 5.439
58.688 8.4792 5.45
58.7934 8.4817 5.4491
58.9006 8.4865 5.4382
59.0057 8.4886 5.4389
59.1078 8.4867 5.4564
59.2101 8.4852 5.4729
59.3156 8.4877 5.4717
59.4235 8.4934 5.4568
59.5319 8.4997 5.4397
59.6411 8.507 5.4179
59.751 8.5153 5.3924
59.8596 8.5218 5.3742
59.967 8.5267 5.3631
60.0737 8.5308 5.3553
60.18 8.5342 5.3502
60.2864 8.5378 5.3446
60.3927 8.5413 5.3393
60.498 8.5435 5.3396
60.606 8.5492 5.3248
30.859 7.5919 6.438
30.9554 7.5689 6.5457
31.0546 7.5555 6.6119
31.1562 7.5502 6.6429
31.2587 7.5478 6.6617
31.3622 7.5483 6.6676
31.4662 7.5506 6.6657
31.5711 7.5556 6.6523
31.677 7.5641 6.6238
31.7833 7.5734 6.5917
31.8885 7.5793 6.5744
31.9926 7.5817 6.5725
32.0966 7.5838 6.5716
32.2008 7.5867 6.5672
32.3051 7.5897 6.5625
32.4093 7.5923 6.5596
32.5133 7.5946 6.5579
32.618 7.5986 6.5488
32.7238 7.6061 6.5244
32.8301 7.6149 6.4947
32.9355 7.6211 6.4764
33.0393 7.6224 6.4789
33.1423 7.6213 6.4921
33.2457 7.6216 6.4993
33.3499 7.6242 6.4963
33.4545 7.6278 6.4889
33.5591 7.6315 6.4811
33.6637 7.6353 6.4731
33.7682 7.6386 6.4671
33.8723 7.6406 6.4669
33.9763 7.6426 6.4665
34.081 7.6464 6.4585
34.1857 7.6503 6.4498
34.29 7.653 6.4468
34.394 7.6547 6.4478
34.4977 7.6559 6.4509
34.6014 7.6569 6.4551
34.7048 7.6571 6.4624
34.8078 7.6562 6.4747
34.9107 7.6551 6.4881
35.0135 7.6538 6.502
35.1162 7.6521 6.5177
35.2193 7.6515 6.5287
35.3232 7.6534 6.5292
35.4274 7.6558 6.5271
35.5308 7.6561 6.5343
35.6338 7.6552 6.5465
35.7379 7.6575 6.545
35.8436 7.6637 6.5267
35.9493 7.6699 6.5082
36.0542 7.6741 6.4986
36.1583 7.6761 6.4984
36.2613 7.6754 6.5102
36.3634 7.6725 6.531
36.466 7.6708 6.5468
36.5698 7.672 6.5502
36.674 7.6743 6.5489
36.7781 7.6765 6.5478
36.8826 7.6797 6.5426
36.9879 7.6846 6.5302
37.0939 7.6913 6.5094
37.2003 7.6989 6.4853
37.3059 7.7046 6.4694
37.4098 7.7061 6.4715
37.5122 7.7039 6.4895
37.6145 7.7017 6.5074
37.7183 7.7028 6.5112
37.823 7.7064 6.5042
37.9278 7.7099 6.4976
38.0323 7.7128 6.4939
38.1367 7.7155 6.491
38.2408 7.7174 6.4911
38.3443 7.718 6.4971
38.4478 7.7186 6.5033
38.5523 7.7214 6.4998
38.658 7.727 6.4843
38.7639 7.7331 6.4664
38.8693 7.7381 6.4538
38.9742 7.7418 6.4464
39.0789 7.7448 6.4418
39.1835 7.748 6.4368
39.2887 7.7524 6.4267
39.3946 7.7582 6.4104
39.5006 7.7643 6.3927
39.6065 7.77 6.3766
39.712 7.7749 6.364
39.8165 7.7776 6.3611
39.9199 7.7779 6.3688
40.0231 7.7776 6.3788
40.1263 7.7773 6.3886
40.2288 7.7757 6.4044
40.3302 7.7715 6.4313
40.4313 7.7668 6.46
40.5338 7.7653 6.4756
40.6374 7.766 6.4811
40.741 7.7668 6.4863
40.8448 7.7679 6.4904
40.9485 7.769 6.4944
41.0519 7.7693 6.5021
41.1553 7.7696 6.5096
41.2591 7.7709 6.5126
41.3636 7.7734 6.5106
41.4683 7.7766 6.5056
41.5729 7.7793 6.5027
41.6766 7.7803 6.5072
41.7795 7.7797 6.5189
41.8826 7.7795 6.5284
41.9872 7.7823 6.5251
42.0928 7.7873 6.5126
42.1983 7.7918 6.5017
42.3031 7.7951 6.4967
42.408 7.7983 6.4916
42.5139 7.8037 6.477
42.6212 7.812 6.4503
42.7292 7.8215 6.4183
42.8361 7.8288 6.3956
42.9405 7.831 6.3948
43.0434 7.8302 6.4071
43.1477 7.8323 6.407
43.2545 7.8393 6.3861
43.3615 7.8466 6.3633
43.4679 7.8527 6.3459
43.5747 7.8597 6.3248
43.682 7.8674 6.3006
43.7885 7.8736 6.2826
43.8941 7.8779 6.2729
43.9994 7.8819 6.2646
44.1053 7.8868 6.2528
44.2112 7.8918 6.2401
44.3166 7.8957 6.2322
44.4213 7.8983 6.2299
44.5258 7.9006 6.2292
44.6307 7.9037 6.225
44.7367 7.9087 6.2122
44.8438 7.9158 6.1908
44.9504 7.9219 6.1733
45.0554 7.925 6.1692
45.159 7.9255 6.1758
45.262 7.9249 6.1873
45.3648 7.9239 6.2009
45.4674 7.9226 6.2154
45.5706 7.9224 6.2252
45.6752 7.9247 6.2244
45.7813 7.9299 6.2111
45.8887 7.9374 6.188
45.9963 7.9451 6.164
46.1025 7.9503 6.1507
46.207 7.9523 6.1509
46.3106 7.9528 6.158
46.4148 7.9544 6.1601
46.5202 7.9581 6.1531
46.6252 7.961 6.15
46.7279 7.9599 6.1639
46.8296 7.957 6.1852
46.9323 7.956 6.1988
47.0356 7.956 6.2077
47.1384 7.9552 6.2206
47.2414 7.9547 6.2318
47.3459 7.9568 6.2318
47.4512 7.9603 6.2259
47.555 7.9612 6.2311
47.657 7.959 6.25
47.7594 7.9574 6.266
47.8639 7.9595 6.2658
47.9702 7.9648 6.2526
48.0762 7.9693 6.2422
48.1806 7.9713 6.2426
48.2849 7.973 6.2445
48.3898 7.9757 6.2422
48.4949 7.9788 6.2381
48.6004 7.9825 6.2314
48.7069 7.9879 6.2174
48.8142 7.9946 6.1978
48.9207 8 6.1838
49.0257 8.0029 6.1807
49.1305 8.0053 6.1796
49.2362 8.0092 6.1718
49.3431 8.0152 6.1554
49.4512 8.0231 6.1305
49.5597 8.0316 6.1034
49.6663 8.037 6.0895
49.7702 8.0379 6.0948
49.8731 8.0371 6.1074
49.9768 8.0378 6.1137
50.0818 8.0405 6.1115
50.1875 8.0442 6.1046
50.2933 8.0484 6.0962
50.4 8.0537 6.0825
50.5084 8.0618 6.0569
50.6184 8.0724 6.0207
50.7285 8.0832 5.9837
50.8372 8.0915 5.9572
50.9434 8.096 5.9474
51.0486 8.0988 5.9443
51.1545 8.1028 5.9365
51.261 8.1078 5.9245
51.3678 8.1131 5.9113
51.4751 8.1192 5.8943
51.5825 8.1254 5.877
51.6888 8.1299 5.8672
51.7935 8.1319 5.8676
51.8973 8.1325 5.8747
52.0005 8.1323 5.8849
52.1035 8.1317 5.8968
52.2059 8.1301 5.9131
52.3075 8.1275 5.9337
52.4098 8.1259 5.9501
52.5144 8.1276 5.952
52.6214 8.1332 5.9372
52.7302 8.1414 5.9115
52.8401 8.1512 5.879
52.9501 8.1611 5.8457
53.0579 8.1677 5.8268
53.1624 8.1693 5.8296
53.2664 8.1702 5.8349
53.373 8.1749 5.8242
53.4815 8.1825 5.8009
53.5898 8.1897 5.7795
53.6964 8.1944 5.7691
53.8017 8.1972 5.7664
53.9077 8.2009 5.76
54.0149 8.2065 5.7455
54.1241 8.2149 5.7188
54.2363 8.2276 5.6739
54.3487 8.2406 5.6276
54.457 8.2476 5.6068
54.562 8.2497 5.6073
54.667 8.252 5.6072
54.7737 8.2566 5.5966
54.8807 8.2617 5.5845
54.9861 8.2644 5.5824
55.0889 8.2634 5.5963
55.1906 8.2609 5.6166
55.2945 8.2614 5.6239
55.4014 8.2662 5.6127
55.5099 8.2734 5.5915
55.619 8.2814 5.5669
55.7286 8.2898 5.5401
55.8382 8.2984 5.513
55.9461 8.3046 5.4959
56.0517 8.3075 5.4932
56.1562 8.3088 5.4971
56.2603 8.3096 5.5033
56.3639 8.3098 5.5119
56.4682 8.3108 5.5172
56.5743 8.3144 5.5115
56.6822 8.3205 5.4949
56.7917 8.3287 5.4691
56.9021 8.338 5.4388
57.0107 8.345 5.4183
57.1165 8.348 5.415
57.2215 8.3501 5.4159
57.3272 8.3529 5.4133
57.4323 8.3551 5.4136
57.5358 8.355 5.4236
57.6385 8.3538 5.4383
57.7421 8.3539 5.4475
57.846 8.3545 5.4548
57.9482 8.3527 5.4722
58.0496 8.3499 5.4938
58.1536 8.3505 5.5011
58.2604 8.3549 5.4916
58.3686 8.3611 5.4746
58.4762 8.3665 5.4612
58.581 8.3682 5.4636
58.6844 8.368 5.4742
58.7898 8.3705 5.4732
58.897 8.3754 5.462
59.0022 8.3776 5.4623
59.1042 8.3755 5.4806
59.2062 8.3736 5.4985
59.3118 8.3763 5.4966
59.4205 8.3831 5.4773
59.5301 8.391 5.4533
59.64 8.3991 5.428
59.7497 8.4071 5.4036
59.8585 8.4139 5.3843
59.9666 8.4198 5.3687
60.0741 8.4248 5.357
60.1799 8.4276 5.3545
60.2838 8.4281 5.362
60.3869 8.4275 5.3743
60.4878 8.4242 5.3985
60.5967 8.4309 5.3792
30.7615 7.5025 6.363
30.8574 7.4779 6.4777
30.953 7.4529 6.5944
31.0538 7.4447 6.638
31.1556 7.44 6.6664
31.258 7.437 6.6879
31.361 7.4362 6.6994
31.4649 7.4382 6.6988
31.5699 7.4436 6.6837
31.6758 7.4521 6.6551
31.7823 7.4619 6.6207
31.888 7.4697 6.5955
31.9925 7.4734 6.5877
32.0965 7.4754 6.587
32.2004 7.4773 6.5869
32.3044 7.4795 6.5857
32.4087 7.4823 6.5818
32.5131 7.4857 6.5757
32.6181 7.4909 6.5613
32.7243 7.4993 6.533
32.8306 7.5082 6.5027
32.9356 7.5133 6.489
33.0389 7.5133 6.4974
33.1416 7.5114 6.5138
33.2451 7.512 6.5198
33.3497 7.5157 6.5118
33.4547 7.5206 6.4991
33.5596 7.525 6.4883
33.6643 7.529 6.4792
33.7687 7.5321 6.4743
33.8724 7.533 6.4785
33.976 7.534 6.4827
34.0808 7.538 6.4736
34.1861 7.5434 6.4586
34.2908 7.5474 6.4497
34.3951 7.5499 6.4474
34.499 7.5515 6.4489
34.6027 7.5525 6.4528
34.7059 7.5524 6.4619
34.8086 7.5505 6.4782
34.9112 7.5487 6.4944
35.014 7.5473 6.5091
35.1167 7.5458 6.5239
35.22 7.5459 6.5322
35.324 7.5478 6.532
35.428 7.5498 6.5321
35.5313 7.5498 6.5404
35.6343 7.549 6.5524
35.7383 7.5509 6.5527
35.8436 7.5563 6.5377
35.9491 7.5618 6.5225
36.0538 7.5655 6.5148
36.1581 7.5681 6.512
36.2615 7.5685 6.5187
36.3639 7.5662 6.5372
36.4667 7.565 6.5511
36.5708 7.5672 6.5501
36.6756 7.5709 6.5425
36.7803 7.5747 6.5347
36.8849 7.5778 6.5297
36.9892 7.5804 6.5269
37.094 7.5842 6.519
37.1995 7.5895 6.5046
37.3048 7.5946 6.4914
37.4093 7.5976 6.4869
37.5125 7.5974 6.4961
37.6152 7.5959 6.5113
37.7186 7.5963 6.5181
37.823 7.5991 6.5145
37.9277 7.6026 6.5083
38.0325 7.6061 6.5018
38.1373 7.6096 6.495
38.2416 7.6122 6.4925
38.3453 7.6132 6.4969
38.4489 7.614 6.5018
38.5537 7.6175 6.4955
38.6596 7.6237 6.4773
38.7655 7.6295 6.4606
38.8704 7.6335 6.4523
38.975 7.6363 6.4488
39.0794 7.639 6.4458
39.184 7.642 6.4413
39.289 7.6458 6.4337
39.3943 7.6503 6.4228
39.4998 7.6554 6.4095
39.6057 7.6612 6.3932
39.7117 7.6671 6.3765
39.8167 7.6708 6.369
39.9204 7.6717 6.374
40.0235 7.6713 6.3846
40.1265 7.6708 6.3954
40.2291 7.6693 6.4105
40.3305 7.6651 6.4373
40.4316 7.6605 6.466
40.5343 7.6594 6.4795
40.6382 7.6607 6.4826
40.7418 7.6615 6.4882
40.8453 7.662 6.4947
40.9487 7.6625 6.5012
41.0518 7.6621 6.512
41.1546 7.6613 6.5239
41.2582 7.662 6.5297
41.3629 7.6652 6.5248
41.4682 7.6694 6.5153
41.5726 7.6718 6.5138
41.6758 7.6718 6.5228
41.7784 7.6705 6.537
41.8817 7.6708 6.5448
41.9867 7.6744 6.5378
42.0927 7.6802 6.5219
42.1985 7.6853 6.5084
42.3034 7.6888 6.5025
42.408 7.6915 6.4994
42.5133 7.6958 6.4897
42.6199 7.7024 6.4701
42.727 7.7102 6.4455
42.8334 7.7165 6.427
42.9381 7.7195 6.4232
43.0418 7.7203 6.4286
43.1465 7.7231 6.4252
43.2531 7.7298 6.4055
43.3602 7.7374 6.3814
43.4668 7.7438 6.3627
43.5732 7.7498 6.3457
43.6799 7.7565 6.3255
43.7866 7.7631 6.3061
43.8927 7.7686 6.2914
43.9986 7.7736 6.2788
44.1047 7.7788 6.2651
44.2106 7.7839 6.2522
44.3162 7.7882 6.2428
44.4212 7.7915 6.2376
44.5261 7.7945 6.2336
44.6314 7.7981 6.2268
44.7375 7.8034 6.2129
44.8445 7.8102 6.1926
44.951 7.8162 6.1759
45.056 7.8193 6.1714
45.1595 7.8197 6.1786
45.2621 7.8183 6.1939
45.3641 7.8159 6.2132
45.4662 7.8138 6.2316
45.5694 7.8135 6.2419
45.6735 7.8151 6.2441
45.7787 7.8185 6.2384
45.8858 7.8254 6.2175
45.9942 7.8346 6.1871
46.1013 7.8415 6.1665
46.206 7.8439 6.1649
46.3096 7.8444 6.1719
46.414 7.8463 6.1727
46.5194 7.85 6.166
46.6241 7.8524 6.1646
46.7272 7.8521 6.1752
46.83 7.8512 6.1882
46.9334 7.8513 6.1969
47.0363 7.8506 6.209
47.1383 7.8484 6.2277
47.2411 7.8475 6.2405
47.3461 7.8505 6.2369
47.4519 7.8548 6.2275
47.5558 7.856 6.2317
47.6579 7.854 6.2495
47.7599 7.8518 6.2682
47.863 7.8515 6.2787
47.9677 7.8539 6.2772
48.073 7.8574 6.2713
48.1779 7.8602 6.2685
48.2829 7.8631 6.2654
48.3881 7.8663 6.2604
48.4933 7.8696 6.2554
48.5993 7.8741 6.2453
48.7062 7.8803 6.2278
48.8132 7.8864 6.2107
48.9188 7.8903 6.2034
49.023 7.8919 6.2057
49.1273 7.8935 6.208
49.2332 7.8979 6.1984
49.3413 7.9058 6.1736
49.4503 7.9151 6.1426
49.5585 7.9231 6.1174
49.6648 7.9279 6.1059
49.7695 7.9302 6.1054
49.874 7.9321 6.1064
49.9789 7.9347 6.1048
50.0842 7.9378 6.1007
50.1893 7.9407 6.0973
50.2943 7.9434 6.0953
50.4 7.9472 6.088
50.5075 7.9539 6.0685
50.6164 7.9627 6.04
50.7254 7.9718 6.0102
50.8336 7.9794 5.9867
50.9402 7.9845 5.9738
51.0463 7.9888 5.9648
51.1533 7.9944 5.95
51.2604 8.0003 5.9339
51.3673 8.0058 5.9199
51.4746 8.0119 5.9028
51.5818 8.0178 5.8866
51.6871 8.0207 5.8837
51.7906 8.021 5.8918
51.8943 8.0214 5.8994
51.9984 8.0225 5.9041
52.102 8.0229 5.912
52.2043 8.0212 5.9287
52.3051 8.0174 5.9545
52.4066 8.0145 5.9763
52.5113 8.0166 5.9767
52.6196 8.024 5.954
52.7299 8.0345 5.9186
52.8413 8.0465 5.8762
52.9522 8.0578 5.8371
53.06 8.0643 5.8183
53.1638 8.0649 5.8253
53.2668 8.0644 5.8369
53.3733 8.0689 5.8272
53.4827 8.0779 5.7979
53.5915 8.0858 5.7733
53.6971 8.089 5.7689
53.8011 8.0898 5.7753
53.906 8.092 5.775
54.0126 8.0966 5.7648
54.1205 8.1031 5.7461
54.2319 8.1147 5.7059
54.3451 8.1288 5.6547
54.4554 8.1387 5.6217
54.5619 8.1431 5.6124
54.6676 8.1463 5.6079
54.7741 8.1506 5.5991
54.8805 8.1548 5.5907
54.9857 8.1573 5.5894
55.089 8.1571 5.6
55.1911 8.1551 5.6181
55.2944 8.1548 5.629
55.3998 8.1575 5.6268
55.5066 8.1622 5.6163
55.614 8.1677 5.6019
55.7229 8.1753 5.5789
55.833 8.1846 5.5485
55.9416 8.1918 5.5274
56.048 8.1957 5.5198
56.1533 8.1983 5.5183
56.2579 8.1998 5.5217
56.3618 8.2004 5.5287
56.4664 8.2019 5.5317
56.5725 8.2055 5.5261
56.6802 8.2112 5.5111
56.7894 8.219 5.4871
56.8991 8.2275 5.4603
57.0071 8.2336 5.4437
57.1126 8.2363 5.4417
57.2179 8.2386 5.4412
57.3241 8.2422 5.4354
57.4293 8.2446 5.435
57.5323 8.2438 5.448
57.6345 8.2421 5.4651
57.7379 8.2418 5.4757
57.8416 8.2422 5.484
57.9437 8.2402 5.502
58.0454 8.2378 5.522
58.1499 8.2391 5.5259
58.2572 8.2442 5.5139
58.3653 8.2503 5.4973
58.4725 8.2551 5.4865
58.5772 8.2568 5.4889
58.6808 8.2569 5.4983
58.7858 8.2589 5.4993
58.8929 8.2635 5.4892
58.9986 8.2663 5.4867
59.1011 8.265 5.5019
59.2034 8.2635 5.5181
59.3091 8.2664 5.5154
59.4186 8.2742 5.4918
59.5298 8.2841 5.4589
59.6409 8.2939 5.4265
59.7507 8.3019 5.4018
59.859 8.3081 5.3849
59.9673 8.3141 5.369
60.0751 8.3196 5.355
60.1804 8.3219 5.3551
60.2809 8.318 5.3815
60.3818 8.3145 5.4061
60.4832 8.3118 5.4274
30.6537 7.3796 6.433
30.7553 7.3738 6.4663
30.8518 7.3511 6.5731
30.9512 7.3386 6.6354
31.0527 7.3327 6.6694
31.1545 7.3279 6.6985
31.2567 7.3246 6.721
31.3597 7.3239 6.7322
31.4638 7.3266 6.7287
31.5687 7.3318 6.7141
31.6744 7.3393 6.6898
31.7808 7.3493 6.655
31.8872 7.359 6.6211
31.9925 7.3651 6.6028
32.0966 7.3677 6.5997
32.2004 7.3692 6.6016
32.3043 7.371 6.6017
32.4086 7.3741 6.5968
32.5132 7.378 6.5878
32.6183 7.3834 6.5727
32.7241 7.391 6.5484
32.8301 7.3989 6.5223
32.935 7.4033 6.5112
33.0381 7.4029 6.5215
33.1407 7.4009 6.5382
33.2445 7.4024 6.5403
33.3497 7.4077 6.5254
33.455 7.4135 6.5086
33.5599 7.418 6.4975
33.6646 7.4218 6.4894
33.7689 7.4248 6.4846
33.8727 7.426 6.4879
33.9763 7.427 6.4919
34.081 7.4307 6.4842
34.1863 7.4362 6.4688
34.2913 7.4409 6.457
34.3958 7.4442 6.451
34.5 7.4464 6.4496
34.6035 7.447 6.4554
34.7062 7.4453 6.4711
34.8085 7.4427 6.4909
34.9113 7.4412 6.5058
35.0142 7.4404 6.518
35.1171 7.4394 6.5308
35.2205 7.4397 6.5376
35.3246 7.4417 6.5374
35.4285 7.4434 6.5388
35.5318 7.4434 6.5471
35.6349 7.443 6.5575
35.7389 7.445 6.5572
35.844 7.4496 6.5457
35.9488 7.4537 6.5362
36.0532 7.4565 6.5328
36.1576 7.4594 6.5287
36.2615 7.461 6.5303
36.3643 7.4597 6.5443
36.4674 7.4594 6.5543
36.5719 7.4625 6.5492
36.6771 7.4674 6.5366
36.7823 7.472 6.525
36.8867 7.4749 6.5212
36.9905 7.4761 6.5243
37.0944 7.4779 6.5251
37.1988 7.4807 6.5217
37.3035 7.4842 6.5151
37.4083 7.4878 6.5079
37.5123 7.4895 6.5094
37.6154 7.4891 6.5195
37.7189 7.4897 6.5257
37.823 7.4917 6.5255
37.9272 7.4941 6.5236
38.0319 7.4974 6.5181
38.1369 7.5015 6.5091
38.2416 7.5048 6.503
38.3457 7.5068 6.5033
38.4499 7.509 6.5025
38.5552 7.5139 6.4898
38.6616 7.5211 6.4672
38.7677 7.5275 6.4483
38.8725 7.5311 6.4413
38.9765 7.5327 6.4428
39.0804 7.5341 6.4458
39.1846 7.5362 6.4453
39.2892 7.539 6.4415
39.394 7.5426 6.4348
39.4996 7.5476 6.4217
39.6059 7.5544 6.4011
39.7121 7.5609 6.3815
39.8172 7.565 6.3729
39.9211 7.5661 6.3765
40.0241 7.5656 6.3874
40.1269 7.5645 6.4013
40.229 7.562 6.4205
40.3302 7.5575 6.4491
40.4314 7.553 6.4771
40.5341 7.5519 6.4905
40.6379 7.5532 6.4939
40.7417 7.5544 6.4976
40.8455 7.5555 6.5016
40.949 7.5562 6.5072
41.0518 7.5553 6.5197
41.1543 7.5537 6.5355
41.2576 7.5538 6.5438
41.3623 7.5569 6.5391
41.4674 7.561 6.5306
41.5715 7.5628 6.5316
41.6742 7.5617 6.5452
41.7765 7.5599 6.5618
41.8803 7.5612 6.565
41.9864 7.5671 6.5484
42.0934 7.5747 6.5242
42.1996 7.5808 6.5065
42.3042 7.5837 6.503
42.408 7.5848 6.507
42.5126 7.5875 6.5043
42.6185 7.593 6.4895
42.7252 7.5998 6.4688
42.8313 7.6056 6.4525
42.9365 7.6094 6.4452
43.0413 7.6125 6.4407
43.1468 7.617 6.4301
43.2533 7.6234 6.4113
43.3601 7.6304 6.3902
43.4662 7.6359 6.3753
43.5716 7.64 6.3663
43.6775 7.6452 6.353
43.7842 7.6518 6.3334
43.8909 7.6583 6.3139
43.9974 7.6645 6.2961
44.104 7.6707 6.2783
44.2104 7.6767 6.2614
44.3163 7.6817 6.2487
44.4217 7.6857 6.2406
44.527 7.6894 6.2335
44.6324 7.6934 6.2252
44.7382 7.6981 6.214
44.8445 7.7036 6.1993
44.9505 7.7086 6.1865
45.0556 7.7119 6.1816
45.1595 7.713 6.1856
45.2624 7.7123 6.1979
45.3644 7.7099 6.2173
45.4663 7.7072 6.2378
45.569 7.7062 6.2513
45.6724 7.7064 6.2593
45.7767 7.7081 6.261
45.8834 7.7143 6.2435
45.9921 7.724 6.2105
46.0998 7.732 6.1852
46.2047 7.7348 6.1822
46.3081 7.735 6.1903
46.4124 7.7369 6.1914
46.5177 7.7404 6.1852
46.6223 7.7427 6.1844
46.726 7.7434 6.1906
46.83 7.7445 6.195
46.9338 7.7454 6.2004
47.0362 7.7439 6.216
47.1378 7.7409 6.238
47.2404 7.7398 6.2517
47.3454 7.7428 6.248
47.4512 7.747 6.2389
47.5553 7.7485 6.242
47.6577 7.7471 6.2571
47.7595 7.7446 6.2771
47.8615 7.7425 6.2954
47.9651 7.743 6.3023
48.0703 7.7463 6.2972
48.1761 7.7507 6.2876
48.282 7.7551 6.2776
48.3873 7.7585 6.2723
48.492 7.7609 6.2709
48.5979 7.7653 6.2612
48.7051 7.7719 6.242
48.8116 7.7773 6.228
48.9164 7.7799 6.2261
49.0203 7.7809 6.2309
49.1247 7.7827 6.2323
49.2313 7.7882 6.2181
49.3401 7.7973 6.1881
49.449 7.8064 6.1577
49.5565 7.8134 6.1372
49.6629 7.8183 6.125
49.7686 7.8222 6.1175
49.8742 7.8259 6.1109
49.98 7.8299 6.1029
50.0857 7.8338 6.0956
50.1907 7.8364 6.0935
50.2952 7.8383 6.0945
50.4004 7.8415 6.0903
50.5068 7.8464 6.0785
50.6139 7.8523 6.062
50.7215 7.8591 6.0422
50.8293 7.8661 6.0212
50.9369 7.8727 6.0022
51.0448 7.8799 5.9804
51.1537 7.8887 5.9521
51.262 7.8963 5.9286
51.3687 7.9015 5.9153
51.4752 7.9063 5.9041
51.5815 7.9108 5.894
51.6863 7.9131 5.8937
51.7899 7.9133 5.9022
51.8937 7.914 5.9086
51.998 7.9154 5.9121
52.1016 7.9157 5.92
52.2035 7.9135 5.939
52.3039 7.909 5.9678
52.4052 7.9059 5.9904
52.5106 7.909 5.9866
52.6195 7.9174 5.96
52.7303 7.9286 5.9211
52.8419 7.941 5.8768
52.9527 7.9521 5.8387
53.0599 7.9577 5.8238
53.1631 7.9574 5.8345
53.266 7.9567 5.8473
53.3728 7.9618 5.8348
53.4832 7.9721 5.7999
53.5927 7.981 5.7707
53.6987 7.9848 5.7641
53.8029 7.9859 5.7687
53.908 7.9884 5.7675
54.0137 7.9918 5.7625
54.1194 7.9951 5.7575
54.2286 8.0035 5.7309
54.3416 8.0173 5.681
54.4532 8.0291 5.6396
54.5613 8.0357 5.6208
54.6676 8.0398 5.6125
54.7738 8.0438 5.6051
54.8797 8.0472 5.5998
54.9848 8.0495 5.5997
55.0887 8.05 5.6067
55.1916 8.0492 5.6197
55.2946 8.0487 5.6318
55.3988 8.0496 5.6372
55.5041 8.0522 5.6359
55.6105 8.0563 5.6276
55.7192 8.0637 5.6055
55.8295 8.0732 5.5738
55.9384 8.0808 5.5511
56.045 8.085 5.5422
56.1504 8.0878 5.54
56.255 8.0893 5.5433
56.3591 8.0901 5.5494
56.4639 8.0919 5.551
56.5703 8.0959 5.5435
56.6784 8.1022 5.5259
56.7876 8.1101 5.5016
56.8965 8.1174 5.4798
57.0035 8.1221 5.4691
57.1088 8.1245 5.4684
57.2142 8.1271 5.4668
57.3203 8.1306 5.4617
57.425 8.1322 5.4642
57.528 8.1316 5.4768
57.6313 8.1312 5.4881
57.7357 8.1325 5.4923
57.8394 8.1327 5.501
57.941 8.1301 5.5216
58.0424 8.1274 5.5431
58.1463 8.1279 5.5504
58.2532 8.1324 5.5407
58.3614 8.1387 5.5234
58.4689 8.1439 5.5106
58.5742 8.1464 5.5098
58.6782 8.147 5.517
58.7831 8.1488 5.5187
58.8898 8.153 5.5103
58.9953 8.1556 5.509
59.0979 8.1544 5.5237
59.2004 8.1532 5.5386
59.3062 8.1562 5.5355
59.4159 8.1642 5.5107
59.5282 8.1756 5.4714
59.641 8.1875 5.4299
59.7518 8.1969 5.3994
59.8604 8.2034 5.3814
59.9683 8.209 5.3668
60.076 8.2143 5.354
60.1811 8.2162 5.3552
60.2824 8.2134 5.3772
60.3855 8.2128 5.3895
60.4898 8.2137 5.3952
30.6517 7.2644 6.4779
30.7504 7.2492 6.5523
30.8497 7.236 6.618
30.9506 7.2283 6.6597
31.0516 7.221 6.6995
31.1532 7.2154 6.7321
31.2555 7.2127 6.7522
31.3589 7.2131 6.7586
31.463 7.2158 6.755
31.5675 7.2199 6.7455
31.6729 7.2264 6.7252
31.7794 7.2366 6.6895
31.8862 7.2476 6.6497
31.992 7.2555 6.6237
32.0965 7.2592 6.6159
32.2005 7.2613 6.6148
32.3046 7.2638 6.6125
32.4089 7.2667 6.6078
32.5134 7.2705 6.5998
32.6183 7.2754 6.5868
32.7237 7.2816 6.5679
32.8292 7.2881 6.548
32.9338 7.2918 6.5402
33.0369 7.2913 6.5506
33.1398 7.2902 6.5641
33.2441 7.2931 6.5595
33.3497 7.2998 6.539
33.4551 7.3058 6.5213
33.5598 7.3099 6.5118
33.6645 7.3139 6.5028
33.7692 7.3177 6.4945
33.8732 7.3198 6.4938
33.977 7.3211 6.4965
34.0815 7.3243 6.4911
34.1865 7.3291 6.4784
34.2916 7.334 6.4657
34.3965 7.3383 6.4555
34.5008 7.341 6.452
34.6039 7.3404 6.4629
34.706 7.3371 6.4858
34.8082 7.3342 6.5068
34.9113 7.3336 6.5178
35.0147 7.3339 6.5248
35.1179 7.3337 6.5343
35.2213 7.334 6.5413
35.3251 7.3355 6.5432
35.4288 7.3367 6.5466
35.5322 7.3369 6.5544
35.6356 7.3373 6.5609
35.7398 7.3399 6.5583
35.8447 7.3439 6.5491
35.9491 7.3469 6.5446
36.0531 7.3487 6.5456
36.1572 7.351 6.5439
36.2612 7.3527 6.5453
36.3642 7.3521 6.5561
36.4677 7.3528 6.5617
36.5727 7.357 6.5519
36.6782 7.3627 6.5357
36.7834 7.3674 6.524
36.8876 7.3699 6.5218
36.9914 7.3711 6.5248
37.0952 7.3725 6.5275
37.1989 7.3736 6.5312
37.3028 7.3752 6.5331
37.4072 7.378 6.5295
37.5114 7.3802 6.5285
37.6152 7.3813 6.5321
37.7191 7.3831 6.5331
37.8232 7.385 6.5335
37.927 7.3864 6.5361
38.0312 7.3885 6.5354
38.1359 7.392 6.5288
38.2406 7.3953 6.5232
38.3449 7.3979 6.5208
38.4498 7.4016 6.5134
38.5559 7.4081 6.4934
38.6628 7.4167 6.465
38.7694 7.4242 6.441
38.8746 7.4285 6.4311
38.9784 7.4298 6.4343
