53.1378 -50.8204 7.3631
53.2435 -50.819 7.3506
53.3482 -50.8177 7.3447
53.4514 -50.8164 7.348
53.5552 -50.8152 7.3483
53.6594 -50.8139 7.3452
53.7631 -50.8126 7.3457
53.867 -50.8113 7.3449
53.972 -50.81 7.3374
54.0773 -50.8087 7.3277
54.1822 -50.8073 7.3207
54.2869 -50.806 7.3149
54.3927 -50.8047 7.3025
54.5001 -50.8032 7.2806
54.6079 -50.8018 7.2562
54.7156 -50.8004 7.2322
54.8236 -50.799 7.2067
54.932 -50.7975 7.1791
55.0406 -50.7961 7.1504
55.1481 -50.7946 7.1287
55.2527 -50.7933 7.1245
55.3562 -50.7921 7.1271
55.4611 -50.7908 7.1211
55.5657 -50.7895 7.1171
55.6689 -50.7882 7.1216
55.7725 -50.7869 7.1234
55.8768 -50.7856 7.1211
55.9812 -50.7844 7.1184
56.0863 -50.783 7.112
56.1924 -50.7817 7.0989
56.2998 -50.7803 7.0791
56.408 -50.7788 7.0538
56.5156 -50.7774 7.0324
56.62 -50.7761 7.0304
56.7214 -50.7749 7.0457
56.8232 -50.7738 7.0587
56.9269 -50.7725 7.0607
57.0308 -50.7712 7.0614
57.1345 -50.7699 7.063
57.2395 -50.7686 7.0571
57.3458 -50.7673 7.0441
57.4522 -50.7659 7.0307
57.5572 -50.7646 7.0253
57.66 -50.7634 7.0326
57.7638 -50.7621 7.0337
57.8715 -50.7607 7.0131
57.9803 -50.7592 6.9863
58.0872 -50.7579 6.9702
58.1919 -50.7566 6.9668
58.2948 -50.7553 6.9734
58.397 -50.7541 6.9845
58.5007 -50.7528 6.9865
58.6075 -50.7515 6.9714
58.7149 -50.7501 6.9534
58.8212 -50.7487 6.9412
58.9067 -50.7481 7.0454
37.6763 -51.1076 5.7604
37.7745 -51.1067 5.818
38.0507 -51.1046 6.1766
38.1472 -51.1037 6.2488
38.2467 -51.1026 6.2901
38.3419 -51.1018 6.3747
38.4373 -51.1009 6.4572
38.5331 -51.1001 6.5339
38.629 -51.0992 6.6104
38.7243 -51.0983 6.6907
38.8204 -51.0974 6.7637
38.9194 -51.0963 6.8074
39.0217 -51.0951 6.8184
39.1268 -51.0938 6.8013
39.2348 -51.0923 6.757
39.3441 -51.0907 6.7007
39.4526 -51.0892 6.6521
39.5595 -51.0877 6.6194
39.6643 -51.0864 6.6068
39.7672 -51.0852 6.6122
39.8696 -51.0839 6.6232
39.9722 -51.0827 6.6321
40.075 -51.0815 6.6387
40.1785 -51.0802 6.6386
40.2828 -51.0789 6.6311
40.3871 -51.0776 6.6238
40.491 -51.0763 6.6208
40.5945 -51.075 6.6212
40.6978 -51.0738 6.6238
40.8009 -51.0725 6.6271
40.9038 -51.0713 6.6337
41.006 -51.07 6.6459
41.1086 -51.0688 6.6548
41.2116 -51.0676 6.6592
41.3138 -51.0664 6.6713
41.416 -51.0651 6.6831
41.5201 -51.0638 6.6783
41.6243 -51.0625 6.6724
41.7259 -51.0614 6.6904
41.8255 -51.0603 6.7249
41.9257 -51.0591 6.7546
42.0277 -51.0579 6.7688
42.1316 -51.0566 6.7649
42.2387 -51.0552 6.7344
42.348 -51.0537 6.6836
42.4559 -51.0522 6.6469
42.5588 -51.051 6.6525
42.6587 -51.0498 6.6843
42.7587 -51.0487 6.7154
42.8595 -51.0476 6.7389
42.9605 -51.0464 6.7609
43.061 -51.0453 6.787
43.1608 -51.0442 6.8195
43.2602 -51.0431 6.8547
43.3602 -51.042 6.8838
43.4618 -51.0408 6.9003
43.564 -51.0396 6.9117
43.6648 -51.0384 6.9345
43.7642 -51.0373 6.9687
43.8644 -51.0362 6.9959
43.9665 -51.035 7.0082
44.0692 -51.0337 7.0143
44.1717 -51.0325 7.023
44.2733 -51.0313 7.0384
44.3744 -51.0302 7.0582
44.4755 -51.029 7.0777
44.5775 -51.0278 7.09
44.682 -51.0265 7.0819
44.7899 -51.025 7.0464
44.8998 -51.0234 6.9952
45.0098 -51.0219 6.9436
45.1183 -51.0204 6.9041
45.2246 -51.019 6.883
45.3297 -51.0177 6.8716
45.4352 -51.0163 6.8564
45.5411 -51.015 6.8386
45.6459 -51.0136 6.8294
45.7497 -51.0123 6.828
45.8542 -51.011 6.8212
45.9602 -51.0097 6.8034
46.0658 -51.0083 6.788
46.1692 -51.007 6.7903
46.2713 -51.0058 6.8027
46.3744 -51.0046 6.8071
46.4789 -51.0033 6.8005
46.5835 -51.002 6.7941
46.6865 -51.0007 6.7991
46.7881 -50.9995 6.8148
46.8897 -50.9983 6.8311
46.9922 -50.9971 6.8399
47.0957 -50.9958 6.8414
47.1988 -50.9946 6.8459
47.3001 -50.9934 6.8637
47.3995 -50.9923 6.8958
47.4988 -50.9912 6.9279
47.6002 -50.99 6.9448
47.7037 -50.9888 6.9465
47.8081 -50.9874 6.9408
47.9124 -50.9861 6.9366
48.0152 -50.9849 6.9431
48.1167 -50.9837 6.9586
48.2195 -50.9825 6.9657
48.3248 -50.9811 6.9537
48.4308 -50.9798 6.9374
48.5349 -50.9785 6.9344
48.6375 -50.9773 6.9424
48.74 -50.976 6.9508
48.843 -50.9748 6.9563
48.9463 -50.9735 6.9589
49.0494 -50.9723 6.9634
49.1507 -50.9711 6.9808
49.25 -50.97 7.0116
49.3489 -50.9689 7.046
49.4485 -50.9678 7.0747
49.5499 -50.9666 7.0907
49.6539 -50.9653 7.0883
49.7601 -50.9639 7.0711
49.8666 -50.9626 7.0517
49.9729 -50.9612 7.0337
50.0789 -50.9598 7.018
50.1827 -50.9585 7.0181
50.2831 -50.9574 7.0409
50.3825 -50.9563 7.0706
50.4829 -50.9551 7.0937
50.5841 -50.954 7.1107
50.686 -50.9528 7.1231
50.7887 -50.9515 7.1298
50.8919 -50.9503 7.1335
50.9945 -50.949 7.1411
51.0956 -50.9479 7.1593
51.1954 -50.9467 7.1852
51.2955 -50.9456 7.2096
51.3964 -50.9444 7.2287
51.4982 -50.9432 7.2413
51.6008 -50.942 7.2485
51.7029 -50.9408 7.259
51.8041 -50.9396 7.2758
51.9061 -50.9384 7.2868
52.0099 -50.9371 7.2866
52.1134 -50.9358 7.288
52.2149 -50.9346 7.3023
52.3148 -50.9335 7.327
52.4148 -50.9324 7.3512
52.5163 -50.9312 7.3654
52.6198 -50.9299 7.367
52.7242 -50.9286 7.3626
52.8281 -50.9273 7.3612
52.9313 -50.9261 7.365
53.0343 -50.9248 7.3694
53.1384 -50.9235 7.367
53.2439 -50.9222 7.3558
53.3492 -50.9209 7.3457
53.4532 -50.9196 7.3441
53.5569 -50.9183 7.3443
53.6613 -50.917 7.3404
53.766 -50.9157 7.3345
53.8711 -50.9144 7.3265
53.9771 -50.913 7.3128
54.0841 -50.9116 7.2923
54.1913 -50.9102 7.2713
54.2968 -50.9089 7.2611
54.4016 -50.9076 7.2547
54.5079 -50.9062 7.2398
54.6152 -50.9048 7.2181
54.7232 -50.9034 7.1928
54.8313 -50.902 7.1671
54.9386 -50.9006 7.1459
55.0454 -50.8992 7.1281
55.152 -50.8978 7.112
55.2568 -50.8965 7.1068
55.3602 -50.8953 7.1101
55.464 -50.894 7.1107
55.5675 -50.8927 7.1131
55.6704 -50.8915 7.1197
55.7741 -50.8902 7.1208
55.8793 -50.8889 7.1135
55.9848 -50.8876 7.1043
56.0904 -50.8862 7.0943
56.1966 -50.8849 7.0812
56.3032 -50.8835 7.0655
56.4101 -50.8821 7.0486
56.516 -50.8808 7.0373
56.6193 -50.8795 7.0412
56.721 -50.8784 7.055
56.8234 -50.8771 7.064
56.927 -50.8759 7.0664
57.0304 -50.8746 7.0703
57.1339 -50.8734 7.0731
57.2389 -50.8721 7.0675
57.3454 -50.8707 7.0532
57.4526 -50.8693 7.0348
57.5591 -50.8679 7.0211
57.6632 -50.8667 7.0205
57.7673 -50.8654 7.0204
57.8741 -50.864 7.0046
57.9821 -50.8626 6.9826
58.0881 -50.8613 6.9716
58.1922 -50.86 6.9715
58.2958 -50.8587 6.9743
58.3999 -50.8575 6.9744
58.5052 -50.8561 6.9676
58.6109 -50.8548 6.9588
58.7146 -50.8535 6.9615
58.8154 -50.8524 6.98
58.915 -50.8513 7.0054
38.3458 -51.205 6.3478
38.4418 -51.2041 6.4239
38.538 -51.2031 6.4975
38.6337 -51.2022 6.5749
38.7286 -51.2014 6.6607
38.824 -51.2005 6.74
38.9228 -51.1994 6.7856
39.0256 -51.1982 6.7917
39.1316 -51.1968 6.7669
39.2396 -51.1953 6.7223
39.3481 -51.1938 6.6733
39.4559 -51.1923 6.632
39.5623 -51.1909 6.6035
39.6671 -51.1896 6.5909
39.7704 -51.1883 6.5934
39.8729 -51.1871 6.6033
39.9751 -51.1859 6.6158
40.0773 -51.1847 6.6281
40.1802 -51.1834 6.6338
40.284 -51.1821 6.631
40.3883 -51.1808 6.6242
40.4927 -51.1795 6.6165
40.5967 -51.1782 6.612
40.7003 -51.1769 6.6112
40.804 -51.1757 6.6102
40.9071 -51.1744 6.6139
41.0092 -51.1732 6.6277
41.1112 -51.172 6.6415
41.2135 -51.1708 6.6525
41.3152 -51.1696 6.6697
41.4174 -51.1684 6.6822
41.5217 -51.1671 6.6746
41.6261 -51.1658 6.6679
41.7276 -51.1646 6.6858
41.8276 -51.1634 6.7174
41.9284 -51.1623 6.7417
42.0309 -51.1611 6.7512
42.1348 -51.1598 6.7474
42.2411 -51.1584 6.7238
42.3491 -51.1569 6.685
42.4554 -51.1555 6.6608
42.5579 -51.1543 6.6711
42.658 -51.1532 6.7007
42.7587 -51.152 6.726
42.8601 -51.1508 6.7444
42.9614 -51.1497 6.7634
43.0623 -51.1485 6.7863
43.1626 -51.1474 6.8144
43.2624 -51.1462 6.8461
43.3622 -51.1451 6.877
43.4629 -51.144 6.9012
43.5641 -51.1428 6.9206
43.6644 -51.1417 6.9475
43.7638 -51.1405 6.9815
43.8642 -51.1394 7.0073
43.966 -51.1382 7.0217
44.0683 -51.137 7.0319
44.1707 -51.1357 7.0405
44.2732 -51.1345 7.0492
44.3753 -51.1333 7.06
44.4774 -51.1321 7.0717
44.5801 -51.1308 7.0786
44.6851 -51.1295 7.0661
44.7933 -51.128 7.0285
44.9029 -51.1265 6.9801
45.0119 -51.125 6.9366
45.1197 -51.1236 6.9027
45.2263 -51.1222 6.8791
45.3321 -51.1209 6.8615
45.4382 -51.1195 6.8422
45.5439 -51.1181 6.8258
45.6479 -51.1168 6.8227
45.7511 -51.1156 6.8264
45.8555 -51.1143 6.8207
45.9616 -51.1129 6.8014
46.0676 -51.1115 6.7835
46.1709 -51.1103 6.7863
46.2724 -51.1091 6.8036
46.3751 -51.1079 6.8105
46.4799 -51.1065 6.8022
46.5848 -51.1052 6.7932
46.6884 -51.104 6.7939
46.7906 -51.1027 6.8051
46.8921 -51.1015 6.8218
46.9936 -51.1003 6.8379
47.0955 -51.0991 6.8516
47.1974 -51.0979 6.8649
47.299 -51.0967 6.8803
47.4002 -51.0956 6.8995
47.5011 -51.0944 6.9198
47.6033 -51.0932 6.9309
47.7073 -51.0919 6.9285
47.8124 -51.0906 6.9181
47.9168 -51.0893 6.9125
48.0191 -51.088 6.9229
48.12 -51.0869 6.9434
48.2219 -51.0857 6.9562
48.3262 -51.0844 6.9519
48.4312 -51.083 6.9425
48.5344 -51.0818 6.9466
48.6362 -51.0806 6.9601
48.7385 -51.0794 6.97
48.8414 -51.0781 6.9757
48.9447 -51.0769 6.9792
49.0476 -51.0756 6.9843
49.1492 -51.0744 6.9996
49.2495 -51.0733 7.024
49.3497 -51.0721 7.0487
49.4503 -51.071 7.0701
49.5519 -51.0698 7.0852
49.6552 -51.0685 7.0877
49.7603 -51.0672 7.0777
49.8664 -51.0658 7.0615
49.973 -51.0645 7.0415
50.0797 -51.0631 7.0209
50.1844 -51.0618 7.0141
50.2854 -51.0606 7.033
50.3846 -51.0595 7.0642
50.4842 -51.0583 7.0927
50.5841 -51.0572 7.1186
50.6842 -51.0561 7.1433
50.7857 -51.0549 7.1581
50.8891 -51.0536 7.1604
50.9926 -51.0523 7.1621
51.094 -51.0512 7.1777
51.1933 -51.05 7.2072
51.2923 -51.0489 7.2391
51.3922 -51.0478 7.2644
51.4938 -51.0466 7.278
51.5973 -51.0453 7.2794
51.7012 -51.044 7.278
51.8037 -51.0428 7.2861
51.9054 -51.0416 7.2991
52.0084 -51.0404 7.3041
52.112 -51.0391 7.3048
52.2144 -51.0379 7.3131
52.3155 -51.0367 7.33
52.4163 -51.0355 7.3493
52.5179 -51.0343 7.363
52.6214 -51.033 7.3643
52.7261 -51.0317 7.3578
52.83 -51.0305 7.3565
52.9327 -51.0292 7.3631
53.0353 -51.028 7.3702
53.1391 -51.0267 7.3698
53.2445 -51.0254 7.3594
53.3502 -51.024 7.3467
53.4549 -51.0227 7.3407
53.5591 -51.0215 7.3384
53.664 -51.0201 7.3309
53.77 -51.0188 7.3172
53.8763 -51.0174 7.3011
53.9835 -51.016 7.2798
54.0923 -51.0146 7.2485
54.2013 -51.0132 7.2163
54.3074 -51.0118 7.2026
54.4112 -51.0105 7.203
54.5158 -51.0092 7.1982
54.6223 -51.0079 7.182
54.7299 -51.0065 7.1587
54.8375 -51.0051 7.1363
54.9434 -51.0037 7.1236
55.0484 -51.0024 7.1172
55.1538 -51.0011 7.1082
55.2588 -50.9998 7.1015
55.3627 -50.9985 7.1015
55.4663 -50.9973 7.1035
55.5696 -50.996 7.1076
55.6726 -50.9948 7.1133
55.7765 -50.9935 7.1137
55.8815 -50.9922 7.107
55.987 -50.9909 7.0981
56.0926 -50.9895 7.0882
56.1986 -50.9882 7.0759
56.3047 -50.9868 7.0634
56.4106 -50.9855 7.0521
56.5157 -50.9842 7.0458
56.619 -50.9829 7.0497
56.7216 -50.9817 7.0581
56.8249 -50.9805 7.0622
56.9284 -50.9792 7.0654
57.0312 -50.978 7.0722
57.1343 -50.9767 7.0776
57.2388 -50.9754 7.075
57.3448 -50.9741 7.0632
57.452 -50.9727 7.045
57.5588 -50.9714 7.0291
57.6633 -50.9701 7.0264
57.7672 -50.9688 7.0276
57.8737 -50.9675 7.0134
57.9818 -50.9661 6.9908
58.0881 -50.9647 6.9781
58.193 -50.9634 6.9735
58.2982 -50.9621 6.9675
58.4041 -50.9608 6.9575
58.5101 -50.9594 6.9465
58.6144 -50.9582 6.9458
58.7154 -50.957 6.9635
58.814 -50.9559 6.9943
58.9195 -50.9546 6.9869
37.888 -51.3121 5.7432
37.9768 -51.3115 5.8967
38.0645 -51.3109 6.0605
38.1591 -51.31 6.1526
38.2536 -51.3091 6.245
38.3496 -51.3082 6.3217
38.4462 -51.3072 6.3916
38.5427 -51.3063 6.4629
38.6382 -51.3053 6.5428
38.7326 -51.3044 6.6331
38.8278 -51.3035 6.7145
38.9271 -51.3024 6.7555
39.031 -51.3011 6.7502
39.1382 -51.2997 6.7138
39.2462 -51.2982 6.6696
39.3534 -51.2968 6.6334
39.4596 -51.2954 6.6078
39.5651 -51.2941 6.588
39.6697 -51.2928 6.5777
39.7729 -51.2915 6.581
39.8752 -51.2903 6.5931
39.9771 -51.2891 6.6084
40.0792 -51.2879 6.6217
40.1822 -51.2866 6.6267
40.2861 -51.2853 6.6234
40.3903 -51.284 6.6165
40.4947 -51.2827 6.6091
40.5988 -51.2814 6.6034
40.7029 -51.2801 6.5989
40.8068 -51.2789 6.5953
40.9101 -51.2776 6.598
41.0122 -51.2764 6.6108
41.1141 -51.2752 6.6265
41.216 -51.274 6.6415
41.3175 -51.2728 6.6598
41.4195 -51.2716 6.6733
41.5232 -51.2703 6.6721
41.6271 -51.269 6.6692
41.7293 -51.2678 6.6815
41.8302 -51.2666 6.7046
41.9317 -51.2654 6.7231
42.0345 -51.2642 6.7299
42.1387 -51.2629 6.7242
42.2441 -51.2615 6.7075
42.3498 -51.2602 6.6889
42.454 -51.2589 6.6835
42.5561 -51.2577 6.6967
42.6572 -51.2565 6.7178
42.7589 -51.2553 6.7344
42.8606 -51.2541 6.75
42.9618 -51.2529 6.7707
43.0625 -51.2518 6.795
43.1631 -51.2506 6.82
43.2635 -51.2494 6.8469
43.3633 -51.2483 6.8779
43.463 -51.2472 6.91
43.5631 -51.246 6.9394
43.6629 -51.2449 6.9704
43.7626 -51.2438 7.0018
43.8633 -51.2426 7.0247
43.965 -51.2414 7.0397
44.0673 -51.2402 7.05
44.1703 -51.2389 7.0536
44.2739 -51.2377 7.0529
44.3773 -51.2364 7.0539
44.4802 -51.2351 7.0588
44.5835 -51.2339 7.0604
44.6889 -51.2325 7.0451
44.7967 -51.2311 7.0104
44.9053 -51.2297 6.9705
45.0131 -51.2282 6.9365
45.1202 -51.2268 6.9082
45.227 -51.2254 6.8829
45.3337 -51.2241 6.8581
45.4403 -51.2227 6.8351
45.5457 -51.2213 6.8208
45.6496 -51.2201 6.8193
45.753 -51.2188 6.8212
45.8574 -51.2175 6.8148
45.9636 -51.2161 6.7955
46.0699 -51.2148 6.7746
46.1735 -51.2135 6.7754
46.2746 -51.2123 6.7958
46.3766 -51.2111 6.8083
46.4809 -51.2098 6.8034
46.5858 -51.2085 6.7944
46.6895 -51.2072 6.7944
46.7918 -51.206 6.8051
46.8934 -51.2048 6.8209
46.9947 -51.2036 6.8391
47.0955 -51.2024 6.8608
47.1962 -51.2013 6.8828
47.2979 -51.2001 6.8978
47.4004 -51.1988 6.9066
47.503 -51.1976 6.9146
47.6059 -51.1964 6.9201
47.7101 -51.1951 6.9163
47.8153 -51.1937 6.9052
47.9196 -51.1925 6.901
48.0215 -51.1912 6.914
48.1225 -51.1901 6.934
48.2246 -51.1889 6.9453
48.3285 -51.1876 6.9437
48.4324 -51.1863 6.9423
48.5341 -51.1851 6.9569
48.6347 -51.1839 6.9794
48.7363 -51.1827 6.9945
48.839 -51.1815 7.0018
48.942 -51.1802 7.0064
49.045 -51.179 7.0118
49.1473 -51.1778 7.0215
49.249 -51.1766 7.0356
49.3506 -51.1754 7.0506
49.4522 -51.1742 7.0655
49.5539 -51.1729 7.0789
49.6566 -51.1717 7.0861
49.7609 -51.1704 7.0819
49.8666 -51.1691 7.0684
49.9731 -51.1677 7.0485
50.0802 -51.1663 7.0254
50.1858 -51.165 7.0128
50.2877 -51.1638 7.0255
50.3871 -51.1627 7.0555
50.4858 -51.1616 7.0899
50.5841 -51.1605 7.1267
50.6828 -51.1594 7.1611
50.7837 -51.1582 7.1799
50.8873 -51.1569 7.1808
50.9909 -51.1556 7.1815
51.092 -51.1545 7.199
51.1907 -51.1533 7.2327
51.289 -51.1522 7.2688
51.3887 -51.1511 7.2956
51.4906 -51.1499 7.3072
51.5948 -51.1486 7.3036
51.7 -51.1473 7.2941
51.8038 -51.146 7.2929
51.9059 -51.1448 7.3039
52.0079 -51.1436 7.3149
52.1106 -51.1423 7.3216
52.2129 -51.1411 7.3306
52.315 -51.1399 7.3413
52.4171 -51.1387 7.3514
52.5195 -51.1374 7.3599
52.6234 -51.1362 7.359
52.7285 -51.1348 7.3502
52.8325 -51.1336 7.3484
52.9348 -51.1324 7.3576
53.037 -51.1311 7.3673
53.1407 -51.1299 7.3674
53.2462 -51.1285 7.3561
53.3522 -51.1272 7.3416
53.4574 -51.1259 7.3322
53.5621 -51.1246 7.3264
53.6675 -51.1232 7.3164
53.7739 -51.1219 7.2997
53.881 -51.1205 7.279
53.9888 -51.1191 7.254
54.0977 -51.1177 7.2221
54.2068 -51.1163 7.1897
54.3139 -51.1149 7.1694
54.4187 -51.1136 7.1636
54.5233 -51.1123 7.1587
54.6293 -51.111 7.1461
54.7359 -51.1096 7.1295
54.842 -51.1083 7.1159
54.9468 -51.107 7.1105
55.0508 -51.1057 7.1097
55.1552 -51.1044 7.107
55.2598 -51.1031 7.1028
55.3641 -51.1018 7.1002
55.4684 -51.1005 7.0983
55.5721 -51.0993 7.0993
55.6752 -51.098 7.1043
55.7784 -51.0968 7.1092
55.8821 -51.0955 7.1106
55.9865 -51.0942 7.1079
56.0916 -51.0929 7.1009
56.1971 -51.0916 7.0917
56.3027 -51.0903 7.0823
56.4083 -51.089 7.0727
56.5137 -51.0876 7.0644
56.6184 -51.0863 7.0601
56.7228 -51.0851 7.0578
56.8273 -51.0838 7.0551
56.9311 -51.0825 7.0565
57.0336 -51.0813 7.0648
57.136 -51.0801 7.0743
57.2393 -51.0788 7.0789
57.344 -51.0775 7.0748
57.4504 -51.0762 7.0613
57.5569 -51.0748 7.047
57.6611 -51.0736 7.046
57.7642 -51.0723 7.0513
57.8703 -51.071 7.0395
57.9791 -51.0696 7.0129
58.0872 -51.0682 6.9901
58.1944 -51.0668 6.9724
58.3014 -51.0654 6.9559
58.408 -51.0641 6.942
58.5137 -51.0628 6.9329
58.6172 -51.0615 6.9367
58.7187 -51.0603 6.9516
58.8197 -51.0592 6.9689
58.9222 -51.0579 6.9783
37.8918 -51.4156 5.7167
37.9803 -51.4149 5.8737
38.0696 -51.4142 6.0204
38.1631 -51.4133 6.1241
38.2573 -51.4124 6.2197
38.3533 -51.4114 6.2971
38.4501 -51.4104 6.365
38.5464 -51.4094 6.4372
38.6417 -51.4085 6.5193
38.7365 -51.4076 6.6064
38.8325 -51.4066 6.6802
38.9327 -51.4054 6.7116
39.0378 -51.4041 6.6953
39.1455 -51.4027 6.654
39.2531 -51.4012 6.6142
39.3591 -51.3999 6.59
39.464 -51.3985 6.5767
39.5685 -51.3972 6.5669
39.6725 -51.396 6.5629
39.7752 -51.3947 6.5702
39.8771 -51.3935 6.5861
39.9786 -51.3923 6.6049
40.0806 -51.3911 6.6195
40.1838 -51.3898 6.6225
40.2879 -51.3885 6.6171
40.3921 -51.3873 6.6113
40.4962 -51.386 6.6057
40.6007 -51.3847 6.5974
40.7051 -51.3834 6.589
40.809 -51.3821 6.5865
40.9119 -51.3808 6.5923
41.0141 -51.3796 6.605
41.1159 -51.3784 6.6204
41.2179 -51.3772 6.635
41.3199 -51.376 6.6492
41.4221 -51.3747 6.6608
41.5253 -51.3735 6.6639
41.629 -51.3722 6.6629
41.7317 -51.371 6.6707
41.8332 -51.3698 6.6893
41.9348 -51.3686 6.7066
42.0376 -51.3673 6.7125
42.142 -51.366 6.7056
42.2467 -51.3647 6.6958
42.3503 -51.3635 6.6956
42.4528 -51.3622 6.7045
42.5548 -51.361 6.7182
42.6569 -51.3598 6.7311
42.7592 -51.3586 6.7421
42.8608 -51.3574 6.7585
42.9615 -51.3562 6.7836
43.0618 -51.355 6.8106
43.1626 -51.3539 6.8343
43.2634 -51.3527 6.8571
43.3635 -51.3515 6.8868
43.4625 -51.3504 6.9243
43.5615 -51.3493 6.962
43.661 -51.3482 6.996
43.7609 -51.347 7.0254
43.8618 -51.3458 7.047
43.9638 -51.3446 7.0595
44.067 -51.3434 7.0618
44.1714 -51.3421 7.0545
44.2758 -51.3408 7.0467
44.3796 -51.3395 7.0448
44.4829 -51.3382 7.0468
44.5867 -51.337 7.0439
44.6925 -51.3356 7.026
44.7996 -51.3342 6.9974
44.9066 -51.3328 6.9691
45.0133 -51.3315 6.9443
45.1201 -51.3301 6.9188
45.2274 -51.3287 6.8891
45.3349 -51.3273 6.8581
45.4413 -51.3259 6.836
45.5459 -51.3246 6.8289
45.6497 -51.3233 6.8271
45.7542 -51.322 6.8207
45.8593 -51.3207 6.8095
45.9651 -51.3194 6.7931
46.071 -51.318 6.7753
46.175 -51.3168 6.7735
46.2764 -51.3156 6.7904
46.3785 -51.3144 6.8032
46.4824 -51.3131 6.8011
46.587 -51.3118 6.7945
46.6903 -51.3105 6.7975
46.792 -51.3093 6.8121
46.8934 -51.3081 6.8295
46.9948 -51.3069 6.8471
47.0954 -51.3057 6.87
47.1958 -51.3046 6.8948
47.2975 -51.3034 6.9095
47.4006 -51.3021 6.9137
47.5039 -51.3009 6.9167
47.6073 -51.2996 6.9191
47.7115 -51.2983 6.915
47.8163 -51.297 6.9066
47.92 -51.2957 6.9066
48.0219 -51.2945 6.9196
48.1238 -51.2933 6.9333
48.227 -51.292 6.9365
48.3312 -51.2908 6.9333
48.434 -51.2895 6.9395
48.5346 -51.2883 6.9617
48.6348 -51.2872 6.9872
48.736 -51.286 7.0051
48.838 -51.2848 7.0174
48.9405 -51.2835 7.0255
49.0437 -51.2823 7.0293
49.147 -51.281 7.0321
49.2498 -51.2798 7.0383
49.3521 -51.2786 7.0484
49.4543 -51.2773 7.0591
49.5563 -51.2761 7.0706
49.6584 -51.2749 7.0819
49.7617 -51.2736 7.0846
49.8668 -51.2723 7.075
49.9732 -51.271 7.0562
50.0804 -51.2696 7.0326
50.1862 -51.2683 7.018
50.2889 -51.267 7.0252
50.3888 -51.2659 7.0518
50.4869 -51.2648 7.0901
50.5843 -51.2637 7.1336
50.6825 -51.2626 7.1707
50.7837 -51.2614 7.1882
50.8872 -51.2601 7.1892
50.9903 -51.2589 7.1932
51.0906 -51.2577 7.2165
51.1886 -51.2566 7.2543
51.2869 -51.2555 7.2908
51.3868 -51.2543 7.3155
51.4892 -51.2531 7.3242
51.5937 -51.2518 7.3188
51.6989 -51.2505 7.3089
51.8033 -51.2492 7.304
51.9065 -51.248 7.3073
52.009 -51.2467 7.3156
52.1111 -51.2455 7.3256
52.213 -51.2443 7.338
52.315 -51.2431 7.3491
52.4177 -51.2418 7.3555
52.5209 -51.2406 7.3589
52.6252 -51.2393 7.3551
52.7304 -51.238 7.3451
52.8346 -51.2367 7.3421
52.937 -51.2355 7.3508
53.0393 -51.2342 7.3599
53.1432 -51.233 7.3585
53.2492 -51.2316 7.3442
53.3559 -51.2303 7.3258
53.4615 -51.229 7.3139
53.5662 -51.2277 7.3082
53.6712 -51.2264 7.3005
53.7776 -51.225 7.2841
53.8852 -51.2236 7.2601
53.9931 -51.2222 7.2346
54.101 -51.2209 7.2091
54.2093 -51.2195 7.1815
54.3174 -51.2181 7.1548
54.4247 -51.2167 7.1334
54.531 -51.2154 7.1186
54.6366 -51.2141 7.1081
54.7414 -51.2128 7.1024
54.8452 -51.2115 7.1033
54.9485 -51.2102 7.1072
55.0518 -51.209 7.1105
55.1556 -51.2077 7.1112
55.2601 -51.2064 7.108
55.3649 -51.2051 7.1024
55.4699 -51.2038 7.0962
55.5745 -51.2025 7.092
55.678 -51.2013 7.0945
55.7804 -51.2001 7.1041
55.8826 -51.1988 7.1146
55.9855 -51.1976 7.1209
56.0893 -51.1963 7.1215
56.1941 -51.195 7.1169
56.2991 -51.1937 7.1103
56.4044 -51.1924 7.1023
56.5104 -51.1911 7.0904
56.6172 -51.1898 7.0743
56.724 -51.1884 7.0578
56.8299 -51.1871 7.0464
56.9339 -51.1858 7.0467
57.0361 -51.1846 7.0571
57.1381 -51.1834 7.0688
57.2405 -51.1822 7.0786
57.3436 -51.1809 7.0837
57.4485 -51.1796 7.0787
57.5541 -51.1783 7.0699
57.6581 -51.177 7.0698
57.7614 -51.1758 7.0741
57.8681 -51.1744 7.0592
57.9778 -51.173 7.0271
58.0869 -51.1716 6.9984
58.1954 -51.1702 6.9734
58.3034 -51.1688 6.9511
58.41 -51.1675 6.937
58.5149 -51.1662 6.9326
58.6183 -51.165 6.9371
58.7216 -51.1637 6.9419
58.8286 -51.1624 6.9259
58.9279 -51.1612 6.9529
59.0292 -51.16 6.9688
37.8951 -51.5191 5.6948
37.9828 -51.5183 5.8597
38.0758 -51.5175 5.97
38.1694 -51.5165 6.0729
38.2609 -51.5157 6.1954
38.3563 -51.5147 6.2783
38.4531 -51.5137 6.3467
38.5494 -51.5127 6.4198
38.6448 -51.5117 6.5005
38.7404 -51.5107 6.5792
38.8377 -51.5096 6.64
38.9389 -51.5084 6.6626
39.0446 -51.5071 6.6411
39.1521 -51.5057 6.6016
39.2588 -51.5043 6.571
39.364 -51.503 6.5544
39.4683 -51.5017 6.5468
39.5721 -51.5004 6.5443
39.6753 -51.4991 6.5473
39.7777 -51.4979 6.5585
39.8792 -51.4967 6.5774
39.9804 -51.4955 6.5995
40.0822 -51.4943 6.616
40.1853 -51.4931 6.62
40.2892 -51.4918 6.6163
40.3931 -51.4905 6.6131
40.4971 -51.4892 6.6091
40.6017 -51.4879 6.5989
40.7065 -51.4866 6.5879
40.8101 -51.4853 6.5867
40.9128 -51.4841 6.5949
41.015 -51.4829 6.6077
41.117 -51.4817 6.6216
41.2192 -51.4804 6.634
41.3215 -51.4792 6.6449
41.4242 -51.478 6.6534
41.5275 -51.4767 6.6549
41.6314 -51.4754 6.6522
41.7343 -51.4742 6.6579
41.8359 -51.473 6.6758
41.9376 -51.4718 6.6922
42.0405 -51.4705 6.6975
42.1443 -51.4692 6.6959
42.2475 -51.468 6.6991
42.3499 -51.4667 6.7096
42.4522 -51.4655 6.7202
42.5548 -51.4643 6.7288
42.6574 -51.463 6.7371
42.7596 -51.4618 6.7483
42.8609 -51.4606 6.7682
42.9611 -51.4595 6.7964
43.0613 -51.4583 6.8255
43.162 -51.4571 6.8495
43.2631 -51.4559 6.8699
43.3636 -51.4548 6.8956
43.4626 -51.4536 6.9334
43.5611 -51.4525 6.9753
43.6604 -51.4514 7.011
43.7603 -51.4502 7.0411
43.861 -51.449 7.0639
43.9635 -51.4478 7.0718
44.0681 -51.4465 7.0624
44.1734 -51.4452 7.048
44.2778 -51.4439 7.0405
44.3814 -51.4426 7.0398
44.4851 -51.4413 7.0384
44.5901 -51.44 7.0263
44.6965 -51.4387 7.0027
44.8029 -51.4373 6.9803
44.9084 -51.436 6.9644
45.0139 -51.4347 6.9488
45.1204 -51.4333 6.9259
45.228 -51.4319 6.894
45.3355 -51.4305 6.8632
45.4409 -51.4292 6.849
45.5446 -51.4279 6.848
45.6492 -51.4266 6.8406
45.7551 -51.4253 6.8229
45.8608 -51.424 6.8071
45.9655 -51.4227 6.799
46.0699 -51.4214 6.7935
46.1737 -51.4201 6.7921
46.2767 -51.4189 6.7975
46.3799 -51.4176 6.8012
46.4841 -51.4163 6.7973
46.5882 -51.415 6.7941
46.6908 -51.4138 6.8027
46.7918 -51.4126 6.8227
46.8927 -51.4114 6.8436
46.994 -51.4102 6.862
47.0949 -51.409 6.8828
47.1957 -51.4079 6.9044
47.2977 -51.4066 6.9168
47.4008 -51.4054 6.9208
47.5041 -51.4041 6.9239
47.6078 -51.4029 6.9241
47.7121 -51.4016 6.9192
47.8162 -51.4003 6.9161
47.9191 -51.399 6.9221
48.0213 -51.3978 6.9332
48.1244 -51.3966 6.9375
48.229 -51.3953 6.9309
48.3333 -51.394 6.9266
48.4353 -51.3928 6.9386
48.5359 -51.3916 6.9613
48.6369 -51.3904 6.9807
48.7383 -51.3892 6.9966
48.8395 -51.388 7.0148
48.9414 -51.3868 7.0277
49.0449 -51.3855 7.0292
49.1487 -51.3842 7.028
49.2517 -51.383 7.0331
49.354 -51.3818 7.043
49.4563 -51.3805 7.0527
49.5584 -51.3793 7.0642
49.66 -51.3781 7.079
49.7623 -51.3769 7.0885
49.8665 -51.3756 7.0853
49.9724 -51.3743 7.0703
50.0792 -51.3729 7.0487
50.1852 -51.3716 7.0328
50.2886 -51.3703 7.0353
50.3892 -51.3691 7.0573
50.4875 -51.368 7.0941
50.5851 -51.3669 7.1363
50.6838 -51.3658 7.1698
50.7852 -51.3646 7.1857
50.8882 -51.3633 7.1905
50.9903 -51.3621 7.2014
51.0896 -51.361 7.2306
51.1875 -51.3598 7.2698
51.2862 -51.3587 7.3034
51.3868 -51.3575 7.324
51.4895 -51.3563 7.3301
51.5938 -51.355 7.3258
51.6985 -51.3537 7.3191
51.8028 -51.3524 7.3152
51.9067 -51.3512 7.3136
52.0106 -51.3499 7.313
52.1137 -51.3486 7.3168
52.2155 -51.3474 7.3292
52.3166 -51.3462 7.3464
52.4185 -51.345 7.3576
52.5219 -51.3437 7.36
52.6263 -51.3424 7.3553
52.7315 -51.3411 7.3458
52.8361 -51.3399 7.3398
52.9396 -51.3386 7.3417
53.0428 -51.3373 7.3451
53.1473 -51.3361 7.34
53.2539 -51.3347 7.3221
53.361 -51.3334 7.3009
53.4665 -51.332 7.2896
53.5705 -51.3308 7.2883
53.6747 -51.3295 7.2856
53.7809 -51.3282 7.2703
53.889 -51.3268 7.2434
53.9972 -51.3254 7.216
54.1049 -51.324 7.1922
54.213 -51.3226 7.1655
54.3221 -51.3212 7.1329
54.431 -51.3198 7.1019
54.5382 -51.3185 7.0816
54.6434 -51.3172 7.0738
54.7466 -51.3159 7.0776
54.8482 -51.3147 7.0921
54.9493 -51.3135 7.1091
55.0513 -51.3123 7.1206
55.1546 -51.3111 7.1247
55.2594 -51.3098 7.119
55.3653 -51.3085 7.1073
55.471 -51.3071 7.0967
55.5762 -51.3058 7.0888
55.6803 -51.3046 7.0877
55.7827 -51.3033 7.0974
55.8843 -51.3021 7.1116
55.9862 -51.3009 7.1237
56.0891 -51.2997 7.1295
56.1935 -51.2984 7.1269
56.2983 -51.2971 7.1222
56.4029 -51.2958 7.1182
56.5089 -51.2945 7.1061
56.6168 -51.2931 7.0835
56.7249 -51.2918 7.0592
56.8315 -51.2904 7.0443
56.9351 -51.2892 7.0464
57.0372 -51.2879 7.0578
57.1396 -51.2867 7.067
57.2423 -51.2855 7.0749
57.3451 -51.2842 7.082
57.4487 -51.283 7.0842
57.5528 -51.2817 7.0837
57.6566 -51.2805 7.0853
57.7613 -51.2792 7.0813
57.8695 -51.2778 7.0578
57.9795 -51.2764 7.0235
58.0885 -51.275 6.9958
58.1965 -51.2736 6.9737
58.3042 -51.2723 6.9532
58.4104 -51.271 6.9416
58.5145 -51.2697 6.9416
58.6174 -51.2684 6.9483
58.7212 -51.2672 6.9506
58.827 -51.2659 6.9413
58.9272 -51.2647 6.963
59.0316 -51.2634 6.9618
38.648 -51.6149 6.4813
38.7442 -51.6138 6.5541
38.8422 -51.6127 6.6083
38.944 -51.6115 6.6246
39.05 -51.6102 6.5995
39.1571 -51.6088 6.5646
39.263 -51.6075 6.5417
39.3678 -51.6062 6.5293
39.4718 -51.6049 6.5248
39.5751 -51.6036 6.5274
39.6778 -51.6024 6.5348
39.7799 -51.6012 6.5488
39.881 -51.5999 6.572
39.9818 -51.5988 6.5977
40.0835 -51.5976 6.6149
40.1865 -51.5963 6.6201
40.2901 -51.595 6.6195
40.3936 -51.5938 6.6201
40.4972 -51.5925 6.6195
40.6016 -51.5912 6.6111
40.7065 -51.5899 6.5987
40.8105 -51.5886 6.594
40.9136 -51.5874 6.5988
41.0161 -51.5861 6.6087
41.118 -51.5849 6.6231
41.2198 -51.5837 6.639
41.322 -51.5825 6.6517
41.4248 -51.5812 6.6579
41.5286 -51.5799 6.6559
41.6329 -51.5787 6.65
41.7361 -51.5774 6.6524
41.8382 -51.5762 6.6661
41.9404 -51.575 6.6781
42.0433 -51.5737 6.6834
42.1459 -51.5725 6.6921
42.2476 -51.5712 6.709
42.3494 -51.57 6.7238
42.4525 -51.5688 6.7283
42.5558 -51.5675 6.7299
42.6585 -51.5663 6.7377
42.7603 -51.5651 6.7534
42.8611 -51.5639 6.7762
42.9613 -51.5627 6.8048
43.0613 -51.5615 6.8354
43.1617 -51.5604 6.8626
43.2628 -51.5591 6.8825
43.364 -51.5579 6.9026
43.4636 -51.5568 6.9355
43.5623 -51.5557 6.9756
43.6616 -51.5545 7.0109
43.7612 -51.5534 7.0427
43.8619 -51.5522 7.0664
43.9652 -51.5509 7.068
44.0705 -51.5496 7.0529
44.1754 -51.5483 7.0415
44.2791 -51.547 7.0395
44.3829 -51.5457 7.0374
44.488 -51.5444 7.0246
44.5949 -51.5431 6.997
44.7019 -51.5417 6.9692
44.8071 -51.5404 6.9558
44.9112 -51.5391 6.9513
45.0158 -51.5378 6.9431
45.1217 -51.5365 6.9245
45.2286 -51.5351 6.8983
45.335 -51.5338 6.8767
45.4395 -51.5325 6.8694
45.5437 -51.5312 6.8647
45.6496 -51.5299 6.847
45.7564 -51.5285 6.8222
45.8621 -51.5272 6.8065
45.9656 -51.526 6.8077
46.0682 -51.5247 6.8155
46.1717 -51.5235 6.8166
46.2762 -51.5222 6.8109
46.381 -51.5209 6.802
46.4855 -51.5196 6.7954
46.589 -51.5183 6.797
46.6908 -51.5171 6.8119
46.7913 -51.5159 6.8359
46.8918 -51.5147 6.8598
46.9927 -51.5135 6.8804
47.0938 -51.5123 6.9003
47.1951 -51.5111 6.9176
47.2975 -51.5099 6.9272
47.4007 -51.5086 6.9308
47.5042 -51.5074 6.9323
47.6082 -51.5061 6.9294
47.7124 -51.5048 6.9256
47.8156 -51.5036 6.9295
47.9179 -51.5023 6.9394
48.0206 -51.5011 6.9466
48.1245 -51.4998 6.9448
48.2295 -51.4985 6.9358
48.3335 -51.4972 6.9332
48.4356 -51.496 6.9451
48.5372 -51.4948 6.9604
48.6396 -51.4936 6.9696
48.7417 -51.4924 6.9813
48.8425 -51.4912 7.0021
48.9439 -51.49 7.0184
49.0474 -51.4887 7.0194
49.1514 -51.4874 7.0175
49.2541 -51.4862 7.0244
49.3561 -51.485 7.0367
49.4582 -51.4837 7.0482
49.5598 -51.4825 7.0625
49.6607 -51.4813 7.0822
49.7623 -51.4801 7.0972
49.8656 -51.4788 7.0995
49.9707 -51.4775 7.0901
50.0769 -51.4762 7.073
50.1828 -51.4749 7.0579
50.2868 -51.4736 7.0563
50.3882 -51.4724 7.0717
50.4877 -51.4712 7.1006
50.5865 -51.4701 7.1343
50.6863 -51.4689 7.1611
50.7877 -51.4677 7.1769
50.8895 -51.4665 7.1896
50.9899 -51.4653 7.2117
51.0885 -51.4642 7.2463
51.1866 -51.4631 7.2838
51.2859 -51.4619 7.3131
51.3872 -51.4607 7.3292
51.4903 -51.4594 7.3326
51.5946 -51.4582 7.3282
51.6991 -51.4569 7.3231
51.8029 -51.4556 7.3223
51.9067 -51.4543 7.3219
52.0116 -51.453 7.3138
52.1165 -51.4517 7.3058
52.2188 -51.4505 7.3155
52.3189 -51.4493 7.3387
52.4198 -51.4481 7.3567
52.5227 -51.4469 7.362
52.6268 -51.4456 7.3596
52.7319 -51.4443 7.3507
52.8378 -51.443 7.3365
52.9435 -51.4417 7.3244
53.0482 -51.4404 7.3178
53.1534 -51.4391 7.3084
53.26 -51.4378 7.2905
53.3666 -51.4364 7.2729
53.4713 -51.4351 7.2669
53.5745 -51.4339 7.2705
53.6783 -51.4326 7.2705
53.7844 -51.4313 7.2558
53.8925 -51.4299 7.2291
54.0009 -51.4286 7.2
54.1093 -51.4272 7.1721
54.2181 -51.4258 7.1409
54.3276 -51.4244 7.1063
54.4363 -51.423 7.0763
54.5431 -51.4217 7.0582
54.648 -51.4204 7.0524
54.7507 -51.4192 7.06
54.8511 -51.418 7.0813
54.9507 -51.4168 7.1079
55.0511 -51.4156 7.1291
55.1534 -51.4144 7.139
55.2583 -51.4131 7.1329
55.3651 -51.4118 7.1153
55.4718 -51.4104 7.099
55.5771 -51.4091 7.0903
55.681 -51.4079 7.0909
55.7835 -51.4067 7.0993
55.8855 -51.4054 7.111
55.9879 -51.4042 7.1205
56.0916 -51.4029 7.1221
56.1965 -51.4017 7.1163
56.301 -51.4004 7.1129
56.4049 -51.3991 7.1137
56.5102 -51.3978 7.1056
56.6178 -51.3965 7.0843
56.7258 -51.3951 7.0609
56.832 -51.3938 7.0481
56.9355 -51.3925 7.0512
57.0376 -51.3913 7.0624
57.1405 -51.3901 7.0686
57.2445 -51.3888 7.0691
57.3484 -51.3875 7.0697
57.4517 -51.3863 7.0735
57.5546 -51.3851 7.0801
57.6582 -51.3838 7.083
57.7639 -51.3825 7.0731
57.8725 -51.3811 7.0472
57.9823 -51.3797 7.0144
58.091 -51.3784 6.9879
58.1983 -51.377 6.9698
58.3048 -51.3757 6.9564
58.4099 -51.3744 6.9506
58.5131 -51.3732 6.956
58.615 -51.3719 6.9683
58.7175 -51.3707 6.9779
58.8205 -51.3695 6.9838
58.9231 -51.3682 6.9925
59.0257 -51.367 7.001
38.263 -51.7225 6.199
38.36 -51.7214 6.266
38.458 -51.7202 6.322
38.5551 -51.7192 6.387
38.6512 -51.7181 6.4615
38.7476 -51.717 6.5323
38.8457 -51.7159 6.5854
38.9476 -51.7147 6.6014
39.0535 -51.7133 6.5772
39.1603 -51.712 6.5452
39.2659 -51.7107 6.5248
39.3706 -51.7094 6.5137
39.4743 -51.7081 6.5121
39.5772 -51.7069 6.5179
39.68 -51.7056 6.526
39.7819 -51.7044 6.5416
39.8824 -51.7032 6.5705
39.9826 -51.702 6.6014
40.0843 -51.7008 6.619
40.1874 -51.6996 6.6231
40.2908 -51.6983 6.6243
40.3938 -51.697 6.6291
40.4968 -51.6958 6.6343
40.6006 -51.6945 6.6314
40.7053 -51.6932 6.6203
40.81 -51.6919 6.6104
40.914 -51.6906 6.6063
41.0171 -51.6894 6.6098
41.119 -51.6882 6.6251
41.2201 -51.687 6.6475
41.3218 -51.6857 6.6645
41.4248 -51.6845 6.6695
41.5289 -51.6832 6.6645
41.6333 -51.6819 6.6566
41.7371 -51.6807 6.6545
41.8401 -51.6794 6.6597
41.943 -51.6782 6.6657
42.0458 -51.6769 6.6724
42.1476 -51.6757 6.6877
42.2487 -51.6745 6.7098
42.3505 -51.6733 6.7251
42.4538 -51.672 6.7268
42.5573 -51.6707 6.7273
42.6596 -51.6695 6.7388
42.7606 -51.6683 6.7607
42.861 -51.6671 6.7875
42.9611 -51.6659 6.8169
43.0609 -51.6648 6.8488
43.1611 -51.6636 6.8776
43.2623 -51.6624 6.897
43.3639 -51.6612 6.9132
43.4644 -51.66 6.9387
43.564 -51.6588 6.9718
43.6635 -51.6576 7.0047
43.7631 -51.6565 7.0372
43.8639 -51.6553 7.0596
43.9677 -51.654 7.057
44.0732 -51.6527 7.0406
44.1777 -51.6514 7.0318
44.2813 -51.6501 7.0317
44.3856 -51.6488 7.0249
44.4921 -51.6475 7.0008
44.5998 -51.6461 6.9669
44.7064 -51.6448 6.9425
44.8106 -51.6435 6.9377
44.914 -51.6423 6.939
45.0184 -51.641 6.9319
45.1241 -51.6397 6.9155
45.2298 -51.6383 6.8985
45.3348 -51.637 6.8875
45.4392 -51.6358 6.8813
45.5443 -51.6345 6.8694
45.6508 -51.6331 6.8467
45.7576 -51.6318 6.8222
45.8628 -51.6305 6.8104
45.9654 -51.6292 6.8181
46.0673 -51.628 6.8319
46.1706 -51.6268 6.8343
46.2761 -51.6255 6.8203
46.382 -51.6241 6.8035
46.4864 -51.6229 6.7979
46.589 -51.6216 6.8061
46.6902 -51.6204 6.825
46.7907 -51.6192 6.8491
46.8912 -51.618 6.873
46.9919 -51.6168 6.8953
47.0929 -51.6156 6.9155
47.1946 -51.6144 6.9301
47.2973 -51.6132 6.9377
47.4006 -51.6119 6.9402
47.5044 -51.6106 6.939
47.6086 -51.6094 6.9355
47.7123 -51.6081 6.9349
47.8151 -51.6068 6.9419
47.9175 -51.6056 6.9509
48.0207 -51.6044 6.955
48.1245 -51.6031 6.9536
48.2288 -51.6018 6.9491
48.3326 -51.6005 6.9484
48.4355 -51.5993 6.9546
48.5387 -51.598 6.9582
48.6424 -51.5968 6.9583
48.7449 -51.5955 6.9666
48.8459 -51.5943 6.9857
48.9473 -51.5931 7.0023
49.0506 -51.5919 7.0055
49.1543 -51.5906 7.0052
49.2567 -51.5894 7.0147
49.3581 -51.5881 7.031
49.4596 -51.5869 7.0461
49.5607 -51.5857 7.0645
49.661 -51.5845 7.0888
49.7621 -51.5833 7.1068
49.8651 -51.5821 7.1116
49.9696 -51.5808 7.106
50.075 -51.5795 7.0944
50.1802 -51.5782 7.0835
50.2842 -51.5769 7.0818
50.3865 -51.5757 7.0918
50.4876 -51.5745 7.11
50.5882 -51.5733 7.1308
50.6891 -51.5721 7.1501
50.79 -51.5709 7.1693
50.8901 -51.5697 7.1937
50.9887 -51.5686 7.2276
51.0871 -51.5674 7.2636
51.186 -51.5662 7.2959
51.2858 -51.5651 7.3219
51.3872 -51.5639 7.3368
51.4905 -51.5626 7.3393
51.595 -51.5613 7.3337
51.6996 -51.56 7.3276
51.8035 -51.5588 7.3261
51.9074 -51.5575 7.3248
52.0129 -51.5562 7.3132
52.1185 -51.5549 7.3007
52.2207 -51.5537 7.3104
52.3203 -51.5525 7.337
52.4209 -51.5513 7.3577
52.5234 -51.55 7.3651
52.6273 -51.5488 7.3641
52.7331 -51.5475 7.3505
52.8415 -51.5461 7.3205
52.9496 -51.5448 7.2925
53.0556 -51.5434 7.278
53.1607 -51.5421 7.2696
53.2663 -51.5408 7.2583
53.3715 -51.5396 7.2491
53.4753 -51.5383 7.2489
53.5783 -51.537 7.254
53.6821 -51.5358 7.2538
53.7881 -51.5345 7.2398
53.8959 -51.5331 7.2151
54.004 -51.5318 7.1881
54.1124 -51.5304 7.1595
54.2218 -51.529 7.1253
54.3314 -51.5276 7.0897
54.4398 -51.5263 7.062
54.5462 -51.525 7.0463
54.6508 -51.5237 7.0426
54.753 -51.5224 7.0529
54.8531 -51.5213 7.0766
54.9523 -51.5201 7.1049
55.0523 -51.5189 7.129
55.1538 -51.5177 7.1438
55.2578 -51.5164 7.1429
55.3647 -51.5151 7.1247
55.4721 -51.5138 7.1037
55.5772 -51.5125 7.097
55.6801 -51.5112 7.1034
55.7827 -51.51 7.1114
55.8857 -51.5088 7.1171
55.9893 -51.5075 7.1192
56.094 -51.5062 7.1143
56.1995 -51.5049 7.1055
56.304 -51.5037 7.1023
56.4074 -51.5024 7.1053
56.5123 -51.5011 7.1002
56.6196 -51.4998 7.0807
56.7273 -51.4984 7.0589
56.8334 -51.4971 7.0467
56.937 -51.4959 7.0489
57.0391 -51.4947 7.0602
57.1421 -51.4934 7.0659
57.2472 -51.4921 7.0597
57.3527 -51.4908 7.0516
57.4565 -51.4896 7.0528
57.5592 -51.4883 7.0604
57.6628 -51.4871 7.0628
57.7685 -51.4858 7.0534
57.876 -51.4844 7.0341
57.9845 -51.4831 7.0085
58.0928 -51.4817 6.9843
58.1997 -51.4804 6.9687
58.3051 -51.4791 6.9615
58.4092 -51.4779 6.9615
58.5116 -51.4766 6.971
58.6128 -51.4754 6.9876
58.7142 -51.4742 7.0028
58.8161 -51.473 7.015
58.917 -51.4718 7.033
59.0218 -51.4705 7.0294
38.2629 -51.8259 6.2122
38.361 -51.8247 6.2674
38.4595 -51.8236 6.3186
38.5573 -51.8224 6.377
38.6539 -51.8213 6.4465
38.7504 -51.8202 6.5156
38.8486 -51.8191 6.5682
38.9502 -51.8179 6.5873
39.0555 -51.8166 6.5696
39.1621 -51.8152 6.5399
39.2679 -51.8139 6.5174
39.3726 -51.8126 6.5061
39.4761 -51.8114 6.5062
39.579 -51.8101 6.5127
39.6819 -51.8089 6.5191
39.7839 -51.8076 6.5338
39.8839 -51.8064 6.5669
39.9838 -51.8053 6.6019
40.0854 -51.804 6.6195
40.1886 -51.8028 6.6229
40.2917 -51.8015 6.6266
40.3942 -51.8003 6.636
40.4967 -51.799 6.6456
40.6001 -51.7978 6.6471
40.7043 -51.7965 6.6409
40.8088 -51.7952 6.6324
40.9132 -51.7939 6.6244
41.0169 -51.7927 6.6233
41.1191 -51.7914 6.6353
41.2204 -51.7902 6.6555
41.3222 -51.789 6.6718
41.4253 -51.7877 6.6752
41.5296 -51.7865 6.6691
41.6339 -51.7852 6.6622
41.7379 -51.7839 6.6586
41.8416 -51.7826 6.6569
41.9451 -51.7814 6.658
42.0478 -51.7801 6.6656
42.1496 -51.7789 6.6808
42.251 -51.7777 6.6998
42.353 -51.7765 6.7138
42.4559 -51.7752 6.7193
42.5588 -51.774 6.7254
42.6604 -51.7727 6.7424
42.7606 -51.7715 6.7712
42.8602 -51.7704 6.8051
42.9597 -51.7692 6.8394
43.0594 -51.768 6.8719
43.1599 -51.7668 6.8978
43.2615 -51.7656 6.9137
43.3634 -51.7644 6.9273
43.4646 -51.7631 6.9468
43.5651 -51.7619 6.9726
43.665 -51.7608 7.0026
43.7647 -51.7596 7.0341
43.8658 -51.7584 7.0533
43.9701 -51.7571 7.0472
44.0759 -51.7558 7.0283
44.1808 -51.7545 7.0162
44.285 -51.7532 7.0112
44.3898 -51.7519 7.0004
44.4962 -51.7506 6.9775
44.603 -51.7493 6.951
44.7085 -51.748 6.9355
44.8122 -51.7467 6.9338
44.9158 -51.7454 6.9337
45.0209 -51.7441 6.9215
45.1271 -51.7428 6.9009
45.2325 -51.7415 6.8864
45.3368 -51.7402 6.8812
45.4409 -51.739 6.8769
45.546 -51.7377 6.8651
45.6522 -51.7364 6.8452
45.7583 -51.735 6.8262
45.8625 -51.7338 6.822
45.9646 -51.7325 6.8339
46.0665 -51.7313 6.8471
46.1706 -51.73 6.8441
46.2768 -51.7287 6.8243
46.3827 -51.7274 6.8074
46.4863 -51.7261 6.8076
46.5884 -51.7249 6.8196
46.6899 -51.7237 6.8362
46.7911 -51.7225 6.8554
46.8919 -51.7213 6.8767
46.9925 -51.7201 6.9002
47.0933 -51.7189 6.9215
47.1952 -51.7176 6.9345
47.2982 -51.7164 6.9401
47.4016 -51.7151 6.9416
47.5053 -51.7139 6.9412
47.609 -51.7126 6.9414
47.7122 -51.7113 6.9445
47.8152 -51.7101 6.95
47.9182 -51.7088 6.9546
48.0217 -51.7076 6.956
48.1254 -51.7063 6.9557
48.2293 -51.7051 6.9541
48.333 -51.7038 6.9542
48.4366 -51.7025 6.9553
48.541 -51.7013 6.9503
48.6454 -51.7 6.945
48.7482 -51.6987 6.9516
48.8496 -51.6975 6.9679
48.9513 -51.6963 6.9821
49.0542 -51.695 6.9883
49.1572 -51.6938 6.993
49.259 -51.6926 7.0065
49.3599 -51.6914 7.0264
49.461 -51.6901 7.0451
49.5617 -51.6889 7.066
49.6619 -51.6877 7.0907
49.763 -51.6865 7.1089
49.8659 -51.6853 7.1142
49.9701 -51.684 7.1105
50.0748 -51.6827 7.1037
50.179 -51.6815 7.1004
50.2821 -51.6802 7.1045
50.3844 -51.679 7.114
50.4867 -51.6777 7.1242
50.5891 -51.6765 7.1329
50.6908 -51.6753 7.1469
50.7906 -51.6741 7.1734
50.8887 -51.6729 7.2107
50.9869 -51.6718 7.2483
51.0863 -51.6706 7.277
51.1864 -51.6694 7.301
51.2864 -51.6682 7.3256
51.3874 -51.667 7.3435
51.49 -51.6658 7.3503
51.5939 -51.6645 7.3485
51.6987 -51.6632 7.3412
51.804 -51.6619 7.3304
51.9098 -51.6606 7.3168
52.0156 -51.6593 7.3027
52.1199 -51.658 7.2991
52.2208 -51.6568 7.3175
52.3203 -51.6557 7.3446
52.4215 -51.6544 7.3611
52.5249 -51.6532 7.3635
52.6297 -51.6519 7.3563
52.7374 -51.6506 7.3307
52.8478 -51.6492 7.2872
52.9574 -51.6478 7.25
53.0634 -51.6465 7.2358
53.1672 -51.6452 7.236
53.2712 -51.644 7.2343
53.3756 -51.6427 7.2303
53.4794 -51.6414 7.2304
53.5825 -51.6402 7.2347
53.6861 -51.6389 7.2358
53.7919 -51.6376 7.2236
53.8994 -51.6363 7.2005
54.0067 -51.635 7.1786
54.1141 -51.6336 7.1567
54.2231 -51.6323 7.1243
54.3332 -51.6309 7.086
54.442 -51.6296 7.0554
54.5485 -51.6282 7.0397
54.6524 -51.627 7.04
54.7537 -51.6258 7.0555
54.8536 -51.6246 7.0802
54.9537 -51.6234 7.1037
55.0547 -51.6222 7.1213
55.1563 -51.621 7.1354
55.2594 -51.6197 7.1408
55.3654 -51.6184 7.128
55.4724 -51.6171 7.1094
55.5771 -51.6158 7.1047
55.6798 -51.6146 7.1122
55.7827 -51.6133 7.1183
55.8864 -51.6121 7.1195
55.9907 -51.6108 7.1174
56.0956 -51.6095 7.1121
56.2007 -51.6082 7.1052
56.3053 -51.607 7.1016
56.4094 -51.6057 7.1008
56.5147 -51.6044 7.0927
56.622 -51.6031 7.0735
56.7296 -51.6018 7.0521
56.8358 -51.6005 7.0392
56.9396 -51.5992 7.0409
57.0415 -51.598 7.0531
57.1446 -51.5967 7.0585
57.2506 -51.5954 7.0471
57.3572 -51.5941 7.032
57.462 -51.5928 7.0278
57.5653 -51.5916 7.0319
57.6691 -51.5903 7.0336
57.774 -51.5891 7.0286
57.88 -51.5878 7.0175
57.987 -51.5864 7.0008
58.0942 -51.5851 6.9831
58.2002 -51.5838 6.9724
58.3052 -51.5826 6.9676
58.4093 -51.5813 6.9675
58.512 -51.5801 6.9752
58.6135 -51.5788 6.9902
58.7148 -51.5776 7.0059
58.8168 -51.5764 7.0176
58.918 -51.5752 7.0339
59.0246 -51.5739 7.0205
38.2641 -51.9292 6.2121
38.3617 -51.9281 6.2734
38.46 -51.9269 6.3264
38.5583 -51.9258 6.3792
38.6554 -51.9246 6.443
38.7523 -51.9235 6.5095
38.8508 -51.9223 6.5589
38.9526 -51.9211 6.5755
39.0575 -51.9198 6.5619
39.1637 -51.9185 6.5357
39.2695 -51.9172 6.5137
39.3741 -51.9159 6.5036
39.4775 -51.9146 6.5049
39.5803 -51.9134 6.5116
39.6832 -51.9121 6.518
39.7854 -51.9109 6.5309
39.8858 -51.9097 6.5606
39.9859 -51.9085 6.5933
40.0876 -51.9073 6.6109
40.1903 -51.906 6.618
40.2929 -51.9048 6.6267
40.3951 -51.9035 6.639
40.4977 -51.9023 6.6476
40.6012 -51.901 6.6483
40.7048 -51.8998 6.6476
40.8082 -51.8985 6.6487
40.9119 -51.8972 6.6474
41.0154 -51.896 6.6477
41.1183 -51.8947 6.6533
41.221 -51.8935 6.6615
41.3237 -51.8922 6.6685
41.4272 -51.891 6.6691
41.5312 -51.8897 6.6649
41.635 -51.8884 6.6631
41.7385 -51.8872 6.6632
41.8425 -51.8859 6.6598
41.9463 -51.8846 6.6573
42.0493 -51.8834 6.6623
42.1517 -51.8821 6.673
42.2537 -51.8809 6.6864
42.3557 -51.8797 6.7003
42.458 -51.8784 6.7118
42.5602 -51.8772 6.7238
42.6613 -51.876 6.745
42.7608 -51.8748 6.7799
42.8594 -51.8736 6.8218
42.9582 -51.8724 6.8627
43.0575 -51.8712 6.8984
43.1582 -51.87 6.9219
43.2604 -51.8688 6.9335
43.3627 -51.8676 6.9435
43.4645 -51.8663 6.9582
43.5656 -51.8651 6.9781
43.6659 -51.8639 7.0052
43.7659 -51.8627 7.0334
43.8679 -51.8615 7.0458
43.9728 -51.8602 7.0342
44.0788 -51.8589 7.0136
44.1842 -51.8576 6.9985
44.2889 -51.8563 6.989
44.3939 -51.855 6.977
44.4995 -51.8537 6.96
44.6051 -51.8524 6.9436
44.7098 -51.8511 6.9346
44.8134 -51.8499 6.9342
44.9173 -51.8486 6.9318
45.0231 -51.8473 6.9135
45.1303 -51.846 6.8851
45.2363 -51.8447 6.8656
45.3404 -51.8434 6.8617
45.4441 -51.8421 6.8616
45.5486 -51.8409 6.8547
45.654 -51.8396 6.8404
45.7592 -51.8383 6.8286
45.8623 -51.837 6.8325
45.9638 -51.8358 6.8489
46.0663 -51.8346 6.8578
46.1714 -51.8333 6.8466
46.2778 -51.832 6.8258
46.3825 -51.8307 6.818
46.485 -51.8294 6.8271
46.5876 -51.8282 6.8354
46.6906 -51.827 6.8401
46.7929 -51.8257 6.851
46.8938 -51.8245 6.8713
46.994 -51.8233 6.8974
47.0945 -51.8221 6.9218
47.1963 -51.8209 6.9355
47.2996 -51.8196 6.9381
47.4035 -51.8183 6.9366
47.5071 -51.8171 6.9372
47.61 -51.8158 6.9427
47.7126 -51.8146 6.9507
47.8156 -51.8133 6.9554
47.9195 -51.8121 6.9536
48.0239 -51.8108 6.9489
48.128 -51.8095 6.9453
48.2319 -51.8083 6.944
48.3354 -51.807 6.9459
48.439 -51.8057 6.9466
48.5436 -51.8045 6.9398
48.6483 -51.8032 6.9327
48.7513 -51.8019 6.9379
48.853 -51.8007 6.9522
48.9549 -51.7995 6.9653
49.0574 -51.7982 6.9739
49.1596 -51.797 6.9846
49.2607 -51.7958 7.0028
49.3614 -51.7946 7.0243
49.4622 -51.7934 7.0449
49.5629 -51.7921 7.066
49.6635 -51.7909 7.0873
49.7651 -51.7897 7.1024
49.8681 -51.7885 7.1069
49.9722 -51.7872 7.1041
50.0762 -51.7859 7.102
50.179 -51.7847 7.1084
50.2806 -51.7835 7.1228
50.3821 -51.7822 7.1378
50.4846 -51.781 7.1463
50.5879 -51.7797 7.149
50.6901 -51.7785 7.1592
50.7893 -51.7773 7.1899
50.8867 -51.7762 7.2325
50.9855 -51.775 7.2654
51.0866 -51.7738 7.2831
51.1875 -51.7726 7.3015
51.2875 -51.7714 7.3259
51.3879 -51.7701 7.3478
51.4894 -51.7689 7.3618
51.5923 -51.7677 7.3671
51.6972 -51.7664 7.3592
51.8044 -51.7651 7.3355
51.9128 -51.7637 7.3046
52.0195 -51.7624 7.2851
52.1219 -51.7612 7.2936
52.2208 -51.76 7.3249
52.3205 -51.7588 7.3514
52.4233 -51.7576 7.3571
52.5285 -51.7563 7.3476
52.6355 -51.755 7.3265
52.7447 -51.7536 7.2908
52.8554 -51.7523 7.2465
52.9644 -51.7509 7.2125
53.0697 -51.7496 7.2031
53.1723 -51.7484 7.2107
53.2756 -51.7471 7.2137
53.3804 -51.7459 7.2076
53.4847 -51.7446 7.2043
53.5876 -51.7433 7.2103
53.6903 -51.7421 7.2168
53.7956 -51.7408 7.2079
53.9029 -51.7395 7.1858
54.0096 -51.7382 7.1679
54.1157 -51.7369 7.1541
54.2238 -51.7356 7.1275
54.3337 -51.7342 7.0904
54.4426 -51.7329 7.0589
54.5492 -51.7316 7.0427
54.6525 -51.7303 7.046
54.7535 -51.7291 7.0643
54.8539 -51.7279 7.0857
54.9555 -51.7267 7.1
55.0583 -51.7254 7.1067
55.1608 -51.7242 7.1153
55.2633 -51.7229 7.1242
55.3676 -51.7217 7.1216
55.4733 -51.7204 7.1108
55.5782 -51.7191 7.1052
55.6817 -51.7179 7.1074
55.785 -51.7166 7.1114
55.8887 -51.7154 7.1128
55.9928 -51.7141 7.112
56.097 -51.7128 7.1104
56.2013 -51.7116 7.1084
56.3059 -51.7103 7.1048
56.4114 -51.709 7.096
56.5181 -51.7077 7.0798
56.6253 -51.7064 7.0608
56.7321 -51.7051 7.0443
56.8377 -51.7038 7.0349
56.941 -51.7025 7.0392
57.0427 -51.7013 7.053
57.1462 -51.7001 7.056
57.2533 -51.6988 7.0381
57.3611 -51.6974 7.0163
57.4669 -51.6962 7.0064
57.5709 -51.6949 7.0064
57.6743 -51.6936 7.0103
57.778 -51.6924 7.0123
57.8835 -51.6911 7.0045
57.9902 -51.6898 6.9891
58.0964 -51.6885 6.9775
58.2013 -51.6872 6.973
58.3061 -51.686 6.9687
58.4113 -51.6847 6.9628
58.5154 -51.6834 6.9628
58.6178 -51.6822 6.9727
58.7193 -51.681 6.9873
58.8217 -51.6797 6.9972
58.9263 -51.6785 6.9944
59.033 -51.6772 6.9797
38.6559 -52.0279 6.4504
38.7531 -52.0267 6.5137
38.8524 -52.0255 6.5553
38.9552 -52.0243 6.562
39.0603 -52.023 6.5465
39.166 -52.0217 6.525
39.2712 -52.0204 6.5088
39.3753 -52.0192 6.5034
39.4785 -52.0179 6.5065
39.5812 -52.0167 6.5146
39.6838 -52.0154 6.5236
39.7862 -52.0142 6.5349
39.8876 -52.0129 6.5547
39.9885 -52.0117 6.5799
40.0899 -52.0105 6.6003
40.1919 -52.0092 6.6145
40.2941 -52.008 6.6271
40.3965 -52.0068 6.638
40.4995 -52.0055 6.6426
40.6031 -52.0042 6.6418
40.7062 -52.003 6.6461
40.8086 -52.0017 6.6564
40.9114 -52.0005 6.6633
41.0147 -51.9992 6.6653
41.1184 -51.998 6.664
41.2224 -51.9967 6.6594
41.3264 -51.9954 6.6552
41.4301 -51.9942 6.6537
41.5334 -51.9929 6.6563
41.636 -51.9917 6.6644
41.7389 -51.9904 6.6705
41.8429 -51.9892 6.667
41.9472 -51.9879 6.6607
42.0507 -51.9866 6.6611
42.1535 -51.9854 6.6677
42.2558 -51.9841 6.6787
42.3577 -51.9829 6.6937
42.4596 -51.9817 6.7078
42.5616 -51.9804 6.7215
42.6624 -51.9792 6.7453
42.7614 -51.978 6.785
42.8594 -51.9768 6.8326
42.9573 -51.9756 6.8802
43.0559 -51.9745 6.9224
43.1563 -51.9732 6.9488
43.2588 -51.972 6.9573
43.3617 -51.9707 6.9622
43.464 -51.9695 6.9718
43.5658 -51.9683 6.9866
43.6667 -51.967 7.0083
43.7676 -51.9658 7.0294
43.8707 -51.9646 7.0329
43.9761 -51.9633 7.017
44.0822 -51.962 6.9958
44.1875 -51.9607 6.9809
44.2923 -51.9594 6.9712
44.3972 -51.9581 6.9597
44.5026 -51.9569 6.9448
44.6077 -51.9556 6.9321
44.7118 -51.9543 6.9279
44.8149 -51.9531 6.9314
44.9188 -51.9518 6.9291
45.0251 -51.9505 6.9069
45.1329 -51.9492 6.8734
