-13.9431 -37.548 -73.1144
-13.7956 -37.5465 -73.117
-38.2059 -37.7985 -73.919
-38.0608 -37.7955 -73.9416
-37.9139 -37.7934 -73.954
-37.7607 -37.7946 -73.9303
-37.605 -37.7972 -73.8917
-37.449 -37.7999 -73.8504
-37.2956 -37.8013 -73.8247
-37.1497 -37.7987 -73.8426
-37.0035 -37.7962 -73.8589
-36.8466 -37.7996 -73.8114
-36.6894 -37.803 -73.7622
-36.5393 -37.8028 -73.7547
-36.387 -37.8036 -73.734
-36.2328 -37.8056 -73.7016
-36.0829 -37.8053 -73.6944
-35.94 -37.801 -73.7306
-35.7999 -37.7952 -73.7839
-35.6517 -37.7939 -73.7881
-35.4907 -37.7997 -73.7125
-35.3373 -37.8013 -73.6837
-35.1844 -37.8027 -73.6579
-35.0338 -37.8028 -73.6462
-34.8851 -37.8018 -73.6461
-34.7357 -37.8012 -73.6418
-34.5848 -37.8015 -73.6277
-34.4311 -37.8034 -73.5956
-34.2776 -37.8052 -73.5643
-34.1262 -37.8058 -73.5464
-33.9734 -37.8074 -73.5187
-33.8216 -37.8082 -73.498
-33.6758 -37.8056 -73.5157
-33.5291 -37.8036 -73.5275
-33.3773 -37.8045 -73.5064
-33.2263 -37.805 -73.4899
-33.0783 -37.8036 -73.4934
-32.9333 -37.8005 -73.5168
-32.7867 -37.7984 -73.5292
-32.6368 -37.7982 -73.5203
-32.4889 -37.7968 -73.5243
-32.3398 -37.7962 -73.5199
-32.187 -37.7978 -73.4906
-32.034 -37.7997 -73.4589
-31.8836 -37.7999 -73.4453
-31.735 -37.799 -73.444
-31.5853 -37.7988 -73.4353
-31.4344 -37.7994 -73.4175
-31.2836 -37.7999 -73.4003
-31.1338 -37.7998 -73.3898
-30.9846 -37.7993 -73.3842
-30.8349 -37.7992 -73.3744
-30.6852 -37.799 -73.3644
-30.5371 -37.7979 -73.3659
-30.3861 -37.7987 -73.3459
-30.2318 -37.8016 -73.302
-30.0794 -37.8034 -73.2713
-29.9303 -37.8029 -73.2645
-29.7814 -37.8024 -73.2595
-29.6315 -37.8025 -73.2469
-29.4806 -37.8033 -73.2259
-29.3282 -37.8052 -73.1938
-29.1773 -37.806 -73.1733
-29.03 -37.8044 -73.179
-28.8827 -37.8028 -73.1857
-28.7315 -37.8039 -73.1615
-28.5788 -37.8062 -73.1254
-28.429 -37.8063 -73.1119
-28.2805 -37.8056 -73.1082
-28.1304 -37.8061 -73.0914
-27.9801 -37.8067 -73.0736
-27.8316 -37.806 -73.0693
-27.6859 -37.8032 -73.088
-27.5412 -37.7998 -73.1147
-27.3949 -37.7975 -73.1282
-27.2452 -37.7976 -73.1147
-27.0915 -37.8009 -73.0674
-26.9374 -37.8044 -73.0167
-26.7861 -37.8059 -72.9883
-26.6373 -37.8056 -72.9805
-26.4899 -37.8041 -72.9847
-26.3424 -37.8028 -72.9876
-26.1928 -37.803 -72.973
-26.0409 -37.8051 -72.9387
-25.893 -37.804 -72.9382
-25.7476 -37.8011 -72.959
-25.5996 -37.8002 -72.9573
-25.4489 -37.8014 -72.9317
-25.2961 -37.8043 -72.8882
-25.146 -37.8051 -72.8667
-25.0015 -37.8014 -72.8963
-24.8584 -37.7965 -72.9381
-24.7137 -37.7928 -72.9663
-24.5691 -37.789 -72.9961
-24.4248 -37.7851 -73.028
-24.2791 -37.7821 -73.048
-24.1355 -37.7775 -73.0876
-23.9923 -37.7723 -73.1319
-23.848 -37.7682 -73.1655
-23.7015 -37.7658 -73.1793
-23.5515 -37.7666 -73.1594
-23.4009 -37.7678 -73.133
-23.2523 -37.7673 -73.1264
-23.1054 -37.7654 -73.1356
-22.9583 -37.7636 -73.1433
-22.8101 -37.7628 -73.1404
-22.66 -37.7636 -73.1184
-22.5097 -37.7648 -73.0935
-22.3617 -37.7639 -73.0914
-22.214 -37.7626 -73.0931
-22.0634 -37.7641 -73.0642
-21.9108 -37.7675 -73.0152
-21.7613 -37.768 -72.9967
-21.6144 -37.7661 -73.0057
-21.4664 -37.7652 -73.0029
-21.3182 -37.7645 -72.9982
-21.1705 -37.7634 -72.9987
-21.023 -37.762 -73.0013
-20.8753 -37.7609 -73.0007
-20.7275 -37.7599 -73.0001
-20.5809 -37.7575 -73.0134
-20.4351 -37.7544 -73.0349
-20.2874 -37.7533 -73.0351
-20.1371 -37.7548 -73.006
-19.9867 -37.7565 -72.9745
-19.8381 -37.7563 -72.9641
-19.6917 -37.7538 -72.9797
-19.5458 -37.7508 -72.9999
-19.3987 -37.749 -73.0068
-19.2512 -37.7476 -73.0095
-19.1041 -37.7458 -73.0167
-18.9571 -37.7439 -73.0259
-18.8092 -37.743 -73.0229
-18.6587 -37.745 -72.9886
-18.5071 -37.7483 -72.9389
-18.3574 -37.7495 -72.9129
-18.209 -37.7492 -72.9035
-18.0606 -37.749 -72.8931
-17.9121 -37.7489 -72.8816
-17.7636 -37.749 -72.8683
-17.6146 -37.7495 -72.8501
-17.4654 -37.7504 -72.8274
-17.3154 -37.7521 -72.7955
-17.1651 -37.7545 -72.7571
-17.0156 -37.7559 -72.7289
-16.8669 -37.7563 -72.7117
-16.7184 -37.7565 -72.6969
-16.5701 -37.7564 -72.6845
-16.4209 -37.7576 -72.6587
-16.2708 -37.7599 -72.6203
-16.1211 -37.7618 -72.5865
-15.973 -37.7617 -72.575
-15.8269 -37.7588 -72.5937
-15.681 -37.7557 -72.6154
-15.5343 -37.7536 -72.625
-15.3874 -37.7517 -72.633
-15.2408 -37.7495 -72.6444
-15.0941 -37.7474 -72.6542
-14.9472 -37.7455 -72.6625
-14.8003 -37.7436 -72.6698
-14.6533 -37.7418 -72.676
-14.5067 -37.7394 -72.6895
-14.3617 -37.7346 -72.7292
-14.2185 -37.727 -72.7999
-14.078 -37.7148 -72.9198
-13.9422 -37.695 -73.1237
-13.7972 -37.6896 -73.1706
-38.6567 -37.9473 -73.9498
-38.5108 -37.9447 -73.9681
-38.3674 -37.9409 -74.0006
-38.2193 -37.9394 -74.0065
-38.062 -37.9426 -73.9593
-37.9101 -37.9431 -73.9432
-37.7586 -37.9435 -73.9287
-37.6017 -37.9466 -73.8831
-37.4451 -37.9496 -73.8388
-37.2952 -37.9491 -73.8331
-37.1506 -37.9459 -73.8585
-37.0043 -37.9435 -73.8744
-36.8454 -37.9478 -73.8155
-36.6855 -37.9527 -73.7495
-36.5359 -37.9521 -73.7452
-36.3852 -37.9522 -73.734
-36.2329 -37.9531 -73.7132
-36.0853 -37.9514 -73.7205
-35.9399 -37.9486 -73.741
-35.7955 -37.9452 -73.7682
-35.6462 -37.9445 -73.765
-35.492 -37.9465 -73.7319
-35.3367 -37.9491 -73.6911
-35.183 -37.9509 -73.6604
-35.0318 -37.9513 -73.6449
-34.8825 -37.9507 -73.641
-34.7323 -37.9506 -73.6312
-34.5797 -37.9518 -73.6063
-34.4262 -37.9536 -73.5755
-34.2739 -37.9547 -73.5519
-34.1231 -37.955 -73.5374
-33.9718 -37.9555 -73.5203
-33.8206 -37.9561 -73.5028
-33.6724 -37.9549 -73.5052
-33.5242 -37.9537 -73.5074
-33.3722 -37.9547 -73.4846
-33.2235 -37.9539 -73.4833
-33.0764 -37.952 -73.4925
-32.9295 -37.9501 -73.5031
-32.7836 -37.9475 -73.5207
-32.635 -37.9465 -73.5202
-32.4865 -37.9455 -73.5196
-32.3341 -37.9469 -73.4933
-32.1793 -37.9498 -73.4497
-32.026 -37.9518 -73.4163
-31.8772 -37.9511 -73.413
-31.7301 -37.9492 -73.4221
-31.5799 -37.9493 -73.4097
-31.4274 -37.9509 -73.3809
-31.2766 -37.9514 -73.3632
-31.1281 -37.9505 -73.3621
-30.9796 -37.9496 -73.3605
-30.829 -37.9501 -73.3441
-30.6771 -37.9514 -73.318
-30.5252 -37.9527 -73.2916
-30.3731 -37.9542 -73.264
-30.2206 -37.956 -73.2322
-30.0696 -37.9568 -73.2117
-29.9203 -37.9566 -73.2029
-29.7702 -37.9568 -73.189
-29.6195 -37.9575 -73.1695
-29.4681 -37.9587 -73.1448
-29.3155 -37.9607 -73.1109
-29.1643 -37.9618 -73.0868
-29.0173 -37.96 -73.0951
-28.872 -37.9571 -73.1163
-28.7235 -37.9564 -73.1123
-28.5718 -37.9579 -73.0838
-28.4211 -37.9587 -73.0635
-28.2716 -37.9587 -73.051
-28.1217 -37.959 -73.0361
-27.9733 -37.9583 -73.0329
-27.8272 -37.9559 -73.0478
-27.6814 -37.9532 -73.0654
-27.5342 -37.9516 -73.0713
-27.3861 -37.9507 -73.0702
-27.2364 -37.9509 -73.0557
-27.0832 -37.9537 -73.0131
-26.929 -37.9573 -72.9609
-26.777 -37.9594 -72.9262
-26.6274 -37.9597 -72.9112
-26.4794 -37.9587 -72.9104
-26.3318 -37.9575 -72.9116
-26.1827 -37.9574 -72.9008
-26.0343 -37.9568 -72.8956
-25.8916 -37.9517 -72.9398
-25.7456 -37.9492 -72.9558
-25.594 -37.9511 -72.9223
-25.4426 -37.9529 -72.891
-25.2903 -37.9554 -72.851
-25.1429 -37.9541 -72.854
-25.0008 -37.9484 -72.9043
-24.8578 -37.9434 -72.9477
-24.7132 -37.9398 -72.9761
-24.5684 -37.9362 -73.0037
-24.4229 -37.9332 -73.0251
-24.2764 -37.931 -73.0379
-24.1312 -37.9276 -73.0629
-23.9874 -37.9231 -73.1009
-23.8434 -37.9187 -73.1373
-23.6956 -37.9175 -73.1385
-23.5443 -37.9194 -73.1054
-23.3938 -37.9206 -73.0801
-23.2462 -37.9192 -73.0827
-23.0998 -37.9169 -73.0965
-22.9527 -37.9151 -73.1039
-22.8045 -37.9143 -73.1006
-22.6548 -37.9149 -73.0822
-22.5049 -37.9157 -73.0608
-22.3569 -37.9147 -73.0589
-22.2092 -37.9135 -73.0599
-22.059 -37.9146 -73.0351
-21.9075 -37.917 -72.9971
-21.7578 -37.9177 -72.9766
-21.6099 -37.9168 -72.9744
-21.4622 -37.9156 -72.9751
-21.3149 -37.9141 -72.979
-21.1676 -37.9125 -72.9841
-21.0201 -37.9112 -72.9864
-20.8723 -37.9102 -72.9851
-20.7249 -37.9087 -72.9887
-20.5788 -37.9059 -73.0071
-20.4333 -37.9026 -73.0321
-20.2865 -37.9005 -73.0421
-20.1372 -37.901 -73.024
-19.9865 -37.9029 -72.9908
-19.837 -37.9036 -72.9697
-19.6905 -37.9013 -72.9832
-19.5444 -37.8985 -73.0016
-19.3968 -37.8973 -73.0024
-19.2484 -37.8968 -72.9945
-19.1008 -37.8956 -72.9955
-18.9537 -37.8938 -73.0023
-18.8051 -37.8937 -72.9907
-18.6544 -37.8959 -72.9543
-18.5032 -37.8988 -72.9095
-18.3529 -37.9007 -72.8753
-18.2037 -37.9015 -72.854
-18.0547 -37.9019 -72.8364
-17.9056 -37.9026 -72.8165
-17.7563 -37.9036 -72.7923
-17.6064 -37.9053 -72.7609
-17.4561 -37.9075 -72.7237
-17.3058 -37.9097 -72.6857
-17.1558 -37.9118 -72.6504
-17.0065 -37.913 -72.6239
-16.8577 -37.9136 -72.6045
-16.7093 -37.9136 -72.5909
-16.5613 -37.9133 -72.5814
-16.4125 -37.9141 -72.5605
-16.2636 -37.915 -72.5371
-16.1152 -37.9152 -72.5215
-15.9679 -37.914 -72.5219
-15.822 -37.911 -72.5418
-15.6761 -37.9079 -72.5634
-15.5293 -37.906 -72.5715
-15.382 -37.9049 -72.5709
-15.2348 -37.9035 -72.573
-15.0887 -37.9005 -72.5927
-14.9436 -37.8961 -72.6286
-14.7978 -37.8927 -72.6533
-14.6507 -37.891 -72.6583
-14.5037 -37.8894 -72.6636
-14.3584 -37.885 -72.6987
-14.214 -37.8793 -72.749
-14.0686 -37.8749 -72.784
-13.9292 -37.8612 -72.9223
-13.7948 -37.839 -73.1538
-38.8127 -38.0926 -73.9991
-38.6585 -38.0942 -73.9704
-38.5116 -38.0921 -73.983
-38.3614 -38.0917 -73.977
-38.2129 -38.0904 -73.9805
-38.0616 -38.0906 -73.9677
-37.9107 -38.0906 -73.9571
-37.7567 -38.0922 -73.9284
-37.5981 -38.0961 -73.8725
-37.4436 -38.098 -73.8408
-37.297 -38.0958 -73.8546
-37.1517 -38.0929 -73.8761
-37.0003 -38.0932 -73.8619
-36.8412 -38.0977 -73.801
-36.6835 -38.1013 -73.7486
-36.5319 -38.1018 -73.7319
-36.3825 -38.1012 -73.7285
-36.2354 -38.0992 -73.7394
-36.0919 -38.0954 -73.7712
-35.9408 -38.0957 -73.7573
-35.7904 -38.0955 -73.7478
-35.642 -38.0943 -73.7505
-35.4899 -38.0951 -73.73
-35.3345 -38.0978 -73.6887
-35.1805 -38.0998 -73.6558
-35.0286 -38.1005 -73.6363
-34.8777 -38.1008 -73.622
-34.7259 -38.1016 -73.6021
-34.5726 -38.1032 -73.5728
-34.4199 -38.1045 -73.5468
-34.2687 -38.105 -73.53
-34.1178 -38.1053 -73.5152
-33.9666 -38.1059 -73.4978
-33.8161 -38.106 -73.4853
-33.6678 -38.1049 -73.4866
-33.5191 -38.104 -73.4854
-33.3698 -38.1034 -73.48
-33.2223 -38.1018 -73.487
-33.0762 -38.0994 -73.5025
-32.9285 -38.0979 -73.5081
-32.7799 -38.0969 -73.5078
-32.6322 -38.0955 -73.513
-32.4821 -38.0954 -73.5021
-32.3269 -38.0985 -73.4559
-32.1712 -38.1019 -73.406
-32.0194 -38.103 -73.3825
-31.8715 -38.1017 -73.3858
-31.7242 -38.1 -73.3936
-31.5733 -38.1006 -73.3753
-31.4197 -38.1029 -73.3385
-31.269 -38.1033 -73.3218
-31.1218 -38.1016 -73.3292
-30.9744 -38.1 -73.3361
-30.823 -38.101 -73.3135
-30.6684 -38.104 -73.2681
-30.5137 -38.1071 -73.2212
-30.3601 -38.1096 -73.1815
-30.2084 -38.1109 -73.1553
-30.0584 -38.1111 -73.1417
-29.9089 -38.111 -73.1312
-29.7587 -38.1113 -73.116
-29.6078 -38.1122 -73.0948
-29.4555 -38.114 -73.0632
-29.3022 -38.1165 -73.0229
-29.151 -38.1176 -72.9987
-29.0047 -38.1154 -73.0118
-28.861 -38.1115 -73.0443
-28.7154 -38.1088 -73.0629
-28.5663 -38.1084 -73.0547
-28.4152 -38.1096 -73.0301
-28.2634 -38.1112 -72.9999
-28.1128 -38.112 -72.9794
-27.9658 -38.1103 -72.9864
-27.8208 -38.1072 -73.01
-27.6744 -38.105 -73.0225
-27.5262 -38.1042 -73.02
-27.3771 -38.1039 -73.0107
-27.2262 -38.105 -72.9863
-27.0725 -38.1082 -72.9386
-26.9187 -38.1116 -72.8894
-26.7672 -38.1132 -72.8587
-26.6178 -38.1134 -72.8448
-26.4699 -38.1124 -72.8439
-26.3218 -38.1116 -72.8408
-26.1719 -38.1122 -72.8225
-26.0251 -38.1103 -72.8311
-25.8856 -38.1029 -72.9025
-25.7405 -38.0998 -72.9254
-25.5896 -38.1011 -72.8986
-25.4387 -38.1025 -72.8709
-25.289 -38.1029 -72.8541
-25.1432 -38.1003 -72.8707
-25.0001 -38.0955 -72.9131
-24.8567 -38.0909 -72.9524
-24.7118 -38.0874 -72.9786
-24.5665 -38.0843 -73.0019
-24.4209 -38.0814 -73.0221
-24.2746 -38.079 -73.0366
-24.1287 -38.0763 -73.0539
-23.9831 -38.0733 -73.0749
-23.8365 -38.0711 -73.0874
-23.6875 -38.071 -73.0761
-23.5367 -38.0724 -73.0484
-23.3872 -38.0728 -73.0319
-23.2405 -38.0707 -73.0429
-23.0944 -38.0682 -73.0589
-22.9472 -38.0665 -73.0656
-22.799 -38.0657 -73.0618
-22.6498 -38.0658 -73.0482
-22.5006 -38.066 -73.034
-22.3525 -38.0652 -73.0302
-22.2045 -38.0643 -73.028
-22.0548 -38.0649 -73.0081
-21.9038 -38.0668 -72.9751
-21.7539 -38.0678 -72.9515
-21.6061 -38.0666 -72.9516
-21.46 -38.0641 -72.9679
-21.313 -38.0622 -72.9758
-21.1656 -38.0608 -72.9789
-21.0177 -38.0599 -72.9768
-20.8697 -38.059 -72.9737
-20.7225 -38.0574 -72.9797
-20.5766 -38.0545 -72.9997
-20.4314 -38.0509 -73.0271
-20.2846 -38.0488 -73.0377
-20.1353 -38.0492 -73.0208
-19.9853 -38.0505 -72.9937
-19.8367 -38.0503 -72.9831
-19.6896 -38.0485 -72.99
-19.5423 -38.0469 -72.9953
-19.3936 -38.0468 -72.9831
-19.2443 -38.0475 -72.9634
-19.096 -38.047 -72.9554
-18.9484 -38.0458 -72.9564
-18.7998 -38.0457 -72.9443
-18.649 -38.0481 -72.9053
-18.4973 -38.0515 -72.8544
-18.3463 -38.0542 -72.8108
-18.1967 -38.0554 -72.7847
-18.0478 -38.0559 -72.7664
-17.8985 -38.0568 -72.7438
-17.7488 -38.0583 -72.7142
-17.5983 -38.0607 -72.6743
-17.4472 -38.0639 -72.6254
-17.2967 -38.0666 -72.5827
-17.1476 -38.0676 -72.5587
-16.9991 -38.0678 -72.5435
-16.8505 -38.0682 -72.5257
-16.702 -38.0686 -72.5082
-16.5533 -38.0691 -72.4893
-16.4049 -38.0695 -72.4725
-16.2572 -38.0689 -72.4658
-16.11 -38.0676 -72.4674
-15.963 -38.0661 -72.4713
-15.8167 -38.0637 -72.4843
-15.6707 -38.0607 -72.5041
-15.5241 -38.0586 -72.5149
-15.3766 -38.0578 -72.5104
-15.2289 -38.0572 -72.5045
-15.0832 -38.0539 -72.5283
-14.9392 -38.0479 -72.5817
-14.7943 -38.0432 -72.6203
-14.6474 -38.0414 -72.6269
-14.5006 -38.0394 -72.6359
-14.3558 -38.0344 -72.6785
-14.2108 -38.0296 -72.7188
-14.0621 -38.0304 -72.6967
-13.9184 -38.0234 -72.7614
-13.7885 -37.9947 -73.0683
-38.96 -38.2423 -73.9993
-38.8122 -38.2407 -74.0069
-38.6633 -38.2396 -74.0082
-38.5095 -38.241 -73.9816
-38.3591 -38.2406 -73.9744
-38.2099 -38.2397 -73.9737
-38.0596 -38.2393 -73.967
-37.9068 -38.2403 -73.9451
-37.7515 -38.2425 -73.9088
-37.5952 -38.2453 -73.8668
-37.4442 -38.2453 -73.855
-37.2982 -38.2429 -73.8722
-37.1512 -38.2409 -73.8837
-36.9968 -38.2427 -73.8518
-36.838 -38.2469 -73.793
-36.6808 -38.2503 -73.7434
-36.5286 -38.2511 -73.7231
-36.3792 -38.2504 -73.72
-36.2325 -38.2483 -73.7325
-36.0859 -38.2462 -73.7459
-35.9348 -38.2464 -73.732
-35.7848 -38.2461 -73.7248
-35.6362 -38.245 -73.7257
-35.4844 -38.2456 -73.7072
-35.3305 -38.2475 -73.6752
-35.1779 -38.2486 -73.6508
-35.0249 -38.25 -73.6241
-34.8708 -38.252 -73.5899
-34.7171 -38.2539 -73.5578
-34.5643 -38.2552 -73.5314
-34.4125 -38.2561 -73.5105
-34.261 -38.2567 -73.4918
-34.1093 -38.2575 -73.4719
-33.9579 -38.2581 -73.4532
-33.8083 -38.2578 -73.446
-33.661 -38.2561 -73.4539
-33.5138 -38.2543 -73.4624
-33.3665 -38.2526 -73.4698
-33.2206 -38.2501 -73.487
-33.0746 -38.2476 -73.5037
-32.9266 -38.2463 -73.5074
-32.7774 -38.2457 -73.5026
-32.6283 -38.2451 -73.498
-32.4766 -38.246 -73.4765
-32.3204 -38.2496 -73.4235
-32.1649 -38.2529 -73.3749
-32.0139 -38.2535 -73.3568
-31.866 -38.2522 -73.3596
-31.7175 -38.2513 -73.359
-31.5651 -38.2528 -73.3301
-31.4119 -38.2548 -73.2959
-31.2617 -38.255 -73.2824
-31.1148 -38.2531 -73.2921
-30.9687 -38.2507 -73.3076
-30.8176 -38.2514 -73.2872
-30.6633 -38.2543 -73.2431
-30.5078 -38.2579 -73.1908
-30.3511 -38.2624 -73.1286
-30.1978 -38.2647 -73.0906
-30.0477 -38.265 -73.0752
-29.8982 -38.2649 -73.0645
-29.7481 -38.2652 -73.0495
-29.5969 -38.2663 -73.0257
-29.4445 -38.2681 -72.9929
-29.292 -38.2701 -72.9583
-29.1417 -38.2707 -72.9408
-28.9949 -38.2688 -72.9496
-28.8511 -38.265 -72.9813
-28.7082 -38.2605 -73.0201
-28.5616 -38.2585 -73.0312
-28.4099 -38.26 -73.0022
-28.2559 -38.2632 -72.9543
-28.1048 -38.2643 -72.929
-27.9586 -38.2621 -72.9428
-27.8134 -38.2591 -72.9642
-27.6663 -38.2575 -72.9705
-27.5182 -38.2566 -72.969
-27.3693 -38.2563 -72.9605
-27.2171 -38.2583 -72.9249
-27.0624 -38.2623 -72.8685
-26.9088 -38.2654 -72.8209
-26.7576 -38.2669 -72.7921
-26.6086 -38.2668 -72.7813
-26.4617 -38.2651 -72.7887
-26.3135 -38.2644 -72.7845
-26.1616 -38.2665 -72.7486
-26.0165 -38.2634 -72.7711
-25.8784 -38.255 -72.854
-25.7348 -38.2507 -72.8901
-25.5867 -38.2499 -72.8873
-25.4377 -38.2498 -72.8764
-25.2893 -38.2491 -72.8712
-25.1432 -38.2468 -72.8854
-24.9992 -38.2427 -72.919
-24.8551 -38.2387 -72.9526
-24.7099 -38.2355 -72.9761
-24.5642 -38.2327 -72.9955
-24.4186 -38.2298 -73.0152
-24.2722 -38.2276 -73.0284
-24.1252 -38.2258 -73.0364
-23.9776 -38.2245 -73.0385
-23.8286 -38.2243 -73.028
-23.6789 -38.2249 -73.0094
-23.5295 -38.2251 -72.9941
-23.3819 -38.2238 -72.9961
-23.2355 -38.2216 -73.0093
-23.0886 -38.2197 -73.0181
-22.9411 -38.2183 -73.0207
-22.7929 -38.2176 -73.0168
-22.6443 -38.2172 -73.0087
-22.4961 -38.2165 -73.0039
-22.3486 -38.2152 -73.0066
-22.2011 -38.2138 -73.0096
-22.0518 -38.2141 -72.9934
-21.9009 -38.2159 -72.9604
-21.7509 -38.2168 -72.9374
-21.604 -38.215 -72.9449
-21.4584 -38.2119 -72.9681
-21.3118 -38.2098 -72.9791
-21.1639 -38.2088 -72.9773
-21.0156 -38.2083 -72.9706
-20.8675 -38.2075 -72.9664
-20.7203 -38.2058 -72.9727
-20.5745 -38.2028 -72.9938
-20.4291 -38.1995 -73.0188
-20.2819 -38.1978 -73.0246
-20.1327 -38.1982 -73.0078
-19.9835 -38.1985 -72.9914
-19.8352 -38.198 -72.9841
-19.6874 -38.1969 -72.983
-19.5388 -38.1968 -72.9716
-19.3888 -38.1981 -72.9446
-19.2387 -38.1996 -72.9142
-19.0894 -38.2003 -72.8943
-18.9411 -38.1998 -72.8862
-18.7923 -38.2 -72.8717
-18.6417 -38.2022 -72.8341
-18.4902 -38.2055 -72.784
-18.3392 -38.2081 -72.7409
-18.1897 -38.2093 -72.7146
-18.0412 -38.2094 -72.7007
-17.8922 -38.21 -72.6807
-17.7424 -38.2116 -72.6506
-17.5918 -38.2142 -72.6081
-17.4403 -38.218 -72.5521
-17.2896 -38.2208 -72.507
-17.1411 -38.2211 -72.4905
-16.9932 -38.2207 -72.4824
-16.8451 -38.2206 -72.4709
-16.6966 -38.2209 -72.4544
-16.5478 -38.2217 -72.4314
-16.3994 -38.222 -72.4151
-16.2524 -38.2205 -72.4184
-16.1059 -38.2185 -72.4279
-15.9589 -38.2169 -72.4325
-15.812 -38.2153 -72.4374
-15.6658 -38.2128 -72.4528
-15.5195 -38.2104 -72.466
-15.3719 -38.2097 -72.461
-15.224 -38.2095 -72.4499
-15.078 -38.2066 -72.4696
-14.934 -38.2008 -72.5212
-14.7893 -38.1959 -72.5627
-14.643 -38.1932 -72.5796
-14.4968 -38.1904 -72.598
-14.352 -38.1855 -72.6389
-14.2063 -38.1818 -72.6677
-14.0574 -38.1829 -72.6419
-13.9108 -38.1806 -72.6537
-13.7803 -38.1531 -72.9497
-38.9648 -38.3878 -74.0362
-38.8152 -38.387 -74.0339
-38.6636 -38.3872 -74.0202
-38.508 -38.3895 -73.9839
-38.3576 -38.3892 -73.9761
-38.2073 -38.3888 -73.9695
-38.0541 -38.3899 -73.9455
-37.8987 -38.3922 -73.9089
-37.7425 -38.3948 -73.8677
-37.5918 -38.3947 -73.8575
-37.444 -38.3931 -73.8645
-37.297 -38.3911 -73.8761
-37.1476 -38.3904 -73.8733
-36.9933 -38.3922 -73.8417
-36.8345 -38.3964 -73.7829
-36.6774 -38.3997 -73.7337
-36.5283 -38.3988 -73.7321
-36.3788 -38.3982 -73.728
-36.2267 -38.3989 -73.7087
-36.0757 -38.3992 -73.6948
-35.9258 -38.3987 -73.6882
-35.7782 -38.3971 -73.6953
-35.6291 -38.3963 -73.6931
-35.4784 -38.3964 -73.681
-35.3274 -38.3967 -73.6668
-35.1757 -38.3973 -73.6483
-35.0209 -38.3996 -73.6103
-34.8632 -38.4036 -73.5534
-34.707 -38.4068 -73.5055
-34.5542 -38.4082 -73.4786
-34.4029 -38.4087 -73.4608
-34.2509 -38.4097 -73.4388
-34.099 -38.4106 -73.417
-33.9482 -38.4109 -73.4014
-33.7994 -38.4101 -73.3992
-33.6527 -38.4081 -73.4113
-33.5067 -38.4057 -73.4269
-33.3616 -38.4027 -73.4494
-33.2175 -38.3991 -73.4785
-33.072 -38.3964 -73.4982
-32.9239 -38.3951 -73.5012
-32.7743 -38.3948 -73.4932
-32.624 -38.3948 -73.4813
-32.4719 -38.396 -73.4564
-32.3166 -38.3991 -73.4097
-32.1611 -38.4024 -73.3605
-32.0099 -38.4031 -73.341
-31.8617 -38.4019 -73.3421
-31.7111 -38.4023 -73.326
-31.5573 -38.4046 -73.2881
-31.4047 -38.4063 -73.2574
-31.2554 -38.4059 -73.2501
-31.1091 -38.4037 -73.2635
-30.9628 -38.4015 -73.2773
-30.8127 -38.4016 -73.2641
-30.6601 -38.4033 -73.2331
-30.5036 -38.4075 -73.1727
-30.3456 -38.4128 -73.1005
-30.1911 -38.4159 -73.0537
-30.0403 -38.4166 -73.0333
-29.8901 -38.417 -73.0176
-29.739 -38.418 -72.9942
-29.5871 -38.4195 -72.9652
-29.4358 -38.4206 -72.9404
-29.2857 -38.421 -72.9241
-29.1364 -38.4209 -72.9132
-28.9881 -38.4201 -72.9104
-28.8428 -38.4174 -72.93
-28.7019 -38.4115 -72.9849
-28.5574 -38.4081 -73.0113
-28.4057 -38.4096 -72.9825
-28.251 -38.4133 -72.9286
-28.0999 -38.4144 -72.9035
-27.9533 -38.4125 -72.9136
-27.8068 -38.4105 -72.9242
-27.6594 -38.4091 -72.9282
-27.5116 -38.4079 -72.929
-27.363 -38.4074 -72.9229
-27.2101 -38.41 -72.8816
-27.0543 -38.4147 -72.816
-26.9004 -38.4181 -72.7645
-26.7493 -38.4195 -72.7364
-26.6012 -38.4187 -72.7334
-26.456 -38.4158 -72.7542
-26.3096 -38.4138 -72.7652
-26.1597 -38.4143 -72.7469
-26.0137 -38.412 -72.7607
-25.8736 -38.4051 -72.827
-25.7309 -38.4002 -72.8707
-25.5853 -38.3975 -72.8891
-25.4377 -38.3962 -72.891
-25.2895 -38.3955 -72.8873
-25.1429 -38.3935 -72.8975
-24.9984 -38.3898 -72.9268
-24.8537 -38.3863 -72.9546
-24.7079 -38.3836 -72.9725
-24.562 -38.381 -72.9898
-24.4162 -38.3783 -73.0083
-24.2691 -38.3766 -73.0152
-24.1207 -38.376 -73.0098
-23.972 -38.3757 -73.0011
-23.8217 -38.3766 -72.9778
-23.6717 -38.3774 -72.9558
-23.5236 -38.3766 -72.9525
-23.3775 -38.3741 -72.9692
-23.2316 -38.3714 -72.9865
-23.084 -38.3701 -72.9889
-22.9353 -38.3699 -72.9789
-22.7867 -38.3695 -72.971
-22.6388 -38.3685 -72.9694
-22.4918 -38.3667 -72.9766
-22.346 -38.3639 -72.9964
-22.1993 -38.3618 -73.0071
-22.0503 -38.3618 -72.9943
-21.8999 -38.3631 -72.9669
-21.7505 -38.3636 -72.9493
-21.6035 -38.3618 -72.9563
-21.4571 -38.3594 -72.9707
-21.31 -38.3578 -72.9767
-21.162 -38.357 -72.9732
-21.0134 -38.3566 -72.9641
-20.8649 -38.3563 -72.9551
-20.7175 -38.3548 -72.9589
-20.5718 -38.3518 -72.9807
-20.4263 -38.3485 -73.0052
-20.2792 -38.3468 -73.0115
-20.1309 -38.3462 -73.0051
-19.982 -38.3463 -72.9912
-19.8323 -38.3472 -72.9682
-19.6827 -38.3481 -72.9454
-19.5327 -38.3493 -72.9184
-19.382 -38.3514 -72.8817
-19.2314 -38.3534 -72.8458
-19.0817 -38.3546 -72.8198
-18.9326 -38.3551 -72.8006
-18.7831 -38.3561 -72.7765
-18.6327 -38.3581 -72.7412
-18.4823 -38.3601 -72.7048
-18.3325 -38.3616 -72.6747
-18.1835 -38.3622 -72.6549
-18.0349 -38.3624 -72.6399
-17.886 -38.3629 -72.6203
-17.7367 -38.364 -72.5949
-17.5866 -38.3661 -72.5588
-17.4355 -38.3694 -72.5079
-17.285 -38.372 -72.4649
-17.1362 -38.3726 -72.4449
-16.9885 -38.372 -72.4383
-16.8411 -38.3711 -72.4361
-16.6933 -38.3706 -72.4285
-16.5449 -38.3709 -72.4114
-16.3967 -38.3709 -72.3979
-16.2496 -38.3697 -72.3988
-16.103 -38.3677 -72.4078
-15.9561 -38.3662 -72.4115
-15.8091 -38.3647 -72.4152
-15.6626 -38.3625 -72.4265
-15.5161 -38.3605 -72.4361
-15.3684 -38.3599 -72.4296
-15.2202 -38.3601 -72.4141
-15.0735 -38.3583 -72.421
-14.9288 -38.3535 -72.462
-14.7841 -38.3487 -72.5023
-14.6385 -38.3452 -72.5284
-14.4932 -38.3412 -72.5612
-14.3487 -38.3358 -72.6079
-14.2034 -38.3315 -72.6434
-14.0562 -38.3302 -72.6444
-13.9075 -38.331 -72.6221
-38.9661 -38.535 -74.0541
-38.8085 -38.5381 -74.007
-38.659 -38.5373 -74.0049
-38.5077 -38.5374 -73.9925
-38.3556 -38.5379 -73.9754
-38.2023 -38.5391 -73.9513
-38.0478 -38.5408 -73.9202
-37.8933 -38.5425 -73.8888
-37.7368 -38.5454 -73.845
-37.5865 -38.545 -73.8375
-37.4436 -38.541 -73.8727
-37.2938 -38.5405 -73.8676
-37.1421 -38.5409 -73.8519
-36.9885 -38.5423 -73.8242
-36.831 -38.5458 -73.7729
-36.6753 -38.5483 -73.7325
-36.5291 -38.546 -73.7477
-36.3818 -38.5442 -73.757
-36.2265 -38.5466 -73.7179
-36.0703 -38.5495 -73.6733
-35.918 -38.5504 -73.6516
-35.7698 -38.5491 -73.6548
-35.6214 -38.548 -73.6567
-35.4728 -38.5469 -73.6577
-35.324 -38.5459 -73.657
-35.172 -38.5467 -73.6364
-35.0151 -38.5502 -73.585
-34.8553 -38.5553 -73.5146
-34.6968 -38.5598 -73.4519
-34.5432 -38.5616 -73.4198
-34.3914 -38.5624 -73.3986
-34.2397 -38.5632 -73.3779
-34.0882 -38.5639 -73.3587
-33.9377 -38.564 -73.3454
-33.7893 -38.563 -73.3456
-33.6433 -38.5606 -73.361
-33.4987 -38.5574 -73.3862
-33.3554 -38.5535 -73.4203
-33.2127 -38.5492 -73.4582
-33.0679 -38.546 -73.4826
-32.92 -38.5447 -73.4866
-32.77 -38.5446 -73.4759
-32.619 -38.545 -73.459
-32.467 -38.5461 -73.4346
-32.3119 -38.549 -73.3894
-32.1568 -38.552 -73.3435
-32.0057 -38.5527 -73.3243
-31.8569 -38.552 -73.3205
-31.7046 -38.5533 -73.2931
-31.5506 -38.5558 -73.2531
-31.3985 -38.5571 -73.2263
-31.25 -38.5562 -73.2241
-31.1037 -38.554 -73.2376
-30.9566 -38.5523 -73.2458
-30.8075 -38.5518 -73.239
-30.6552 -38.5534 -73.2094
-30.4984 -38.5577 -73.1474
-30.3408 -38.5628 -73.0778
-30.1873 -38.5651 -73.0385
-30.0369 -38.5656 -73.0209
-29.8855 -38.5668 -72.9958
-29.7324 -38.5691 -72.9576
-29.5796 -38.5712 -72.9215
-29.4292 -38.5717 -72.9031
-29.2807 -38.5711 -72.8985
-29.1318 -38.5707 -72.8912
-28.9827 -38.5704 -72.8819
-28.8367 -38.5681 -72.8962
-28.6955 -38.5625 -72.9482
-28.5511 -38.5591 -72.9757
-28.401 -38.5595 -72.9585
-28.2483 -38.5617 -72.9211
-28.0983 -38.5621 -72.9042
-27.9505 -38.5611 -72.9044
-27.8017 -38.5607 -72.8968
-27.6532 -38.5601 -72.8913
-27.5052 -38.5591 -72.8901
-27.3567 -38.5585 -72.8848
-27.2042 -38.5608 -72.847
-27.0483 -38.5655 -72.7801
-26.8937 -38.5694 -72.7231
-26.7432 -38.5704 -72.6999
-26.5971 -38.5682 -72.7126
-26.453 -38.5645 -72.743
-26.308 -38.5614 -72.7655
-26.161 -38.5598 -72.7714
-26.0154 -38.5572 -72.7899
-25.8722 -38.5527 -72.8286
-25.729 -38.5482 -72.8679
-25.5848 -38.5444 -72.8995
-25.4385 -38.5422 -72.912
-25.2902 -38.5415 -72.9074
-25.1428 -38.5401 -72.9105
-24.9976 -38.537 -72.9343
-24.8525 -38.5338 -72.9578
-24.7059 -38.5318 -72.9692
-24.5599 -38.5293 -72.9852
-24.4141 -38.5266 -73.0036
-24.2659 -38.5258 -73.0002
-24.1165 -38.526 -72.9853
-23.9674 -38.526 -72.9727
-23.8165 -38.5274 -72.9432
-23.6662 -38.5285 -72.9189
-23.5192 -38.5267 -72.9264
-23.3745 -38.5231 -72.9555
-23.2293 -38.5198 -72.98
-23.0813 -38.5189 -72.9781
-22.9314 -38.5196 -72.957
-22.782 -38.52 -72.94
-22.6346 -38.5186 -72.9427
-22.4888 -38.5158 -72.9625
-22.3437 -38.5123 -72.9896
-22.1971 -38.5102 -73.0012
-22.049 -38.5094 -72.9972
-21.8997 -38.5098 -72.9804
-21.7506 -38.5098 -72.9668
-21.6027 -38.5089 -72.965
-21.4553 -38.5075 -72.9676
-21.3079 -38.5061 -72.9715
-21.1603 -38.5049 -72.9721
-21.0115 -38.5047 -72.9605
-20.862 -38.5054 -72.9407
-20.7136 -38.505 -72.9322
-20.5679 -38.5019 -72.954
-20.423 -38.4981 -72.9852
-20.2769 -38.4954 -73.0031
-20.1298 -38.4936 -73.0099
-19.9802 -38.4944 -72.9878
-19.8278 -38.498 -72.934
-19.6758 -38.5013 -72.8826
-19.5246 -38.5039 -72.8401
-19.3737 -38.5062 -72.8006
-19.2231 -38.5082 -72.7648
-19.0734 -38.5094 -72.7383
-18.9239 -38.5104 -72.7136
-18.7738 -38.5121 -72.6814
-18.6241 -38.5134 -72.6526
-18.4752 -38.5139 -72.6346
-18.3267 -38.514 -72.6201
-18.178 -38.5142 -72.6043
-18.0292 -38.5147 -72.5855
-17.88 -38.5156 -72.5621
-17.731 -38.5163 -72.5403
-17.582 -38.5172 -72.5173
-17.4323 -38.5188 -72.4852
-17.2823 -38.5208 -72.4491
-17.1332 -38.5219 -72.4231
-16.9855 -38.5212 -72.4177
-16.8386 -38.5197 -72.4215
-16.6912 -38.5188 -72.419
-16.5433 -38.5184 -72.4096
-16.3955 -38.5181 -72.4007
-16.2482 -38.517 -72.3996
-16.1012 -38.5156 -72.4023
-15.9541 -38.5142 -72.4045
-15.8072 -38.5126 -72.4091
-15.6606 -38.5108 -72.417
-15.5137 -38.5092 -72.4218
-15.366 -38.5087 -72.4138
-15.2175 -38.5092 -72.3943
-15.0701 -38.5083 -72.3907
-14.9247 -38.5047 -72.4186
-14.7798 -38.5003 -72.4556
-14.6346 -38.4961 -72.4892
-14.4902 -38.4909 -72.5356
-14.3465 -38.4844 -72.5959
-14.2019 -38.4792 -72.6416
-14.0548 -38.4776 -72.6463
-13.9063 -38.4782 -72.6261
-39.1047 -38.6889 -74.0051
-38.9486 -38.6913 -73.9664
-38.7997 -38.6902 -73.9673
-38.6585 -38.6854 -74.0126
-38.5108 -38.6837 -74.0203
-38.3541 -38.6865 -73.9774
-38.1965 -38.6897 -73.9288
-38.0443 -38.6903 -73.9103
-37.8972 -38.6883 -73.9217
-37.7438 -38.6895 -73.8963
-37.5866 -38.6927 -73.8483
-37.4399 -38.6906 -73.8615
-37.2868 -38.6916 -73.8377
-37.1352 -38.6921 -73.8216
-36.9847 -38.6919 -73.8121
-36.8277 -38.695 -73.7643
-36.6732 -38.697 -73.7304
-36.5277 -38.6942 -73.7504
-36.3831 -38.6911 -73.776
-36.2291 -38.6927 -73.745
-36.0697 -38.6973 -73.6804
-35.9134 -38.7003 -73.6344
-35.7629 -38.7002 -73.6233
-35.6145 -38.6991 -73.6251
-35.466 -38.698 -73.6264
-35.3179 -38.6967 -73.6301
-35.1656 -38.6976 -73.6076
-35.0081 -38.7014 -73.5521
-34.8477 -38.7068 -73.4782
-34.6889 -38.7114 -73.4133
-34.534 -38.7139 -73.3725
-34.381 -38.7154 -73.3438
-34.2289 -38.7164 -73.32
-34.0774 -38.7171 -73.3
-33.9267 -38.7174 -73.2855
-33.779 -38.716 -73.2899
-33.6346 -38.7127 -73.3156
-33.4911 -38.709 -73.3478
-33.3475 -38.7052 -73.3792
-33.2043 -38.7012 -73.4139
-33.0605 -38.6975 -73.445
-32.9142 -38.6953 -73.4593
-32.7648 -38.6948 -73.4529
-32.6134 -38.6955 -73.4332
-32.4602 -38.6973 -73.4009
-32.305 -38.7003 -73.354
-32.1507 -38.7028 -73.3136
-32.0006 -38.7028 -73.3011
-31.8508 -38.7027 -73.2908
-31.6982 -38.7042 -73.2606
-31.5451 -38.7062 -73.2263
-31.3939 -38.7069 -73.206
-31.2452 -38.7062 -73.2023
-31.0979 -38.7046 -73.2085
-30.9503 -38.7032 -73.2132
-30.8024 -38.702 -73.2146
-30.6507 -38.7032 -73.1894
-30.4943 -38.7073 -73.1295
-30.3375 -38.7117 -73.0665
-30.1852 -38.7133 -73.0355
-30.0356 -38.7133 -73.0239
-29.8839 -38.7146 -72.9966
-29.7296 -38.7176 -72.9495
-29.5757 -38.7204 -72.9055
-29.4248 -38.7213 -72.8829
-29.276 -38.7208 -72.8763
-29.127 -38.7205 -72.8677
-28.9777 -38.7204 -72.8562
-28.8309 -38.7186 -72.865
-28.6867 -38.7152 -72.8927
-28.5399 -38.7133 -72.9017
-28.3917 -38.7125 -72.8988
-28.2428 -38.7122 -72.8906
-28.0933 -38.7123 -72.8773
-27.9446 -38.7118 -72.8711
-27.7956 -38.7115 -72.8613
-27.6462 -38.7116 -72.8486
-27.4981 -38.7107 -72.8462
-27.3499 -38.7099 -72.8433
-27.1992 -38.7109 -72.8195
-27.0449 -38.7145 -72.7657
-26.8908 -38.718 -72.7123
-26.7408 -38.7186 -72.6936
-26.5963 -38.7152 -72.72
-26.4531 -38.7109 -72.7574
-26.3077 -38.7081 -72.7771
-26.1618 -38.7057 -72.7922
-26.017 -38.7025 -72.8173
-25.873 -38.6986 -72.8495
-25.7289 -38.6948 -72.8817
-25.5848 -38.6909 -72.9134
-25.4387 -38.6886 -72.9282
-25.2899 -38.6882 -72.9195
-25.1418 -38.6875 -72.9159
-24.9963 -38.6845 -72.937
-24.8512 -38.6814 -72.9609
-24.7041 -38.6798 -72.9671
-24.5578 -38.6775 -72.9808
-24.4118 -38.675 -72.997
-24.2631 -38.6746 -72.9892
-24.1128 -38.6755 -72.9658
-23.9628 -38.6762 -72.9446
-23.8119 -38.6777 -72.9151
-23.6618 -38.6785 -72.8923
-23.5155 -38.6763 -72.9056
-23.3719 -38.6718 -72.9452
-23.227 -38.6682 -72.9733
-23.0794 -38.667 -72.9749
-22.9296 -38.6676 -72.9543
-22.7798 -38.6684 -72.9333
-22.632 -38.6672 -72.9332
-22.4858 -38.6648 -72.9485
-22.3397 -38.6623 -72.9645
-22.1931 -38.6602 -72.9758
-22.0459 -38.6586 -72.9816
-21.898 -38.6576 -72.9796
-21.7495 -38.6573 -72.971
-21.6011 -38.6567 -72.9641
-21.4532 -38.6558 -72.9625
-21.3061 -38.6541 -72.9682
-21.159 -38.6524 -72.9751
-21.0106 -38.652 -72.9672
-20.8603 -38.6533 -72.9388
-20.7102 -38.6545 -72.9121
-20.5633 -38.6527 -72.9199
-20.4182 -38.649 -72.9491
-20.2728 -38.6457 -72.9738
-20.1256 -38.6441 -72.98
-19.9746 -38.6462 -72.9421
-19.8203 -38.6518 -72.8643
-19.6665 -38.6569 -72.7919
-19.5147 -38.6601 -72.7417
-19.3641 -38.6622 -72.7048
-19.2142 -38.6635 -72.6763
-19.0653 -38.664 -72.6577
-18.9163 -38.6645 -72.6386
-18.7666 -38.6658 -72.6108
-18.6175 -38.6665 -72.5896
-18.4697 -38.6658 -72.5842
-18.3218 -38.6651 -72.5781
-18.1735 -38.6651 -72.5649
-18.0248 -38.6655 -72.5475
-17.8757 -38.6663 -72.5245
-17.7267 -38.6671 -72.5024
-17.5784 -38.6671 -72.4892
-17.43 -38.6672 -72.4748
-17.2809 -38.6681 -72.4501
-17.1318 -38.6691 -72.4255
-16.9839 -38.6688 -72.4162
-16.8366 -38.6677 -72.415
-16.6891 -38.667 -72.4102
-16.5415 -38.6662 -72.4053
-16.3944 -38.6649 -72.4063
-16.2474 -38.6636 -72.4086
-16.1001 -38.6625 -72.4072
-15.9527 -38.6616 -72.4047
-15.8056 -38.6603 -72.4062
-15.6587 -38.6587 -72.41
-15.5115 -38.6575 -72.4105
-15.3638 -38.657 -72.4027
-15.2154 -38.6574 -72.3843
-15.0675 -38.6573 -72.3724
-14.9217 -38.6542 -72.3945
-14.7765 -38.6503 -72.4254
-14.6314 -38.6462 -72.4595
-14.4871 -38.6407 -72.5086
-14.3439 -38.6337 -72.5754
-14.1996 -38.6281 -72.626
-14.0525 -38.6265 -72.631
-13.9037 -38.6276 -72.6049
-39.2699 -38.8301 -74.1052
-39.1142 -38.8322 -74.0688
-38.9509 -38.838 -73.9897
-38.7983 -38.8387 -73.97
-38.663 -38.831 -74.0486
-38.5177 -38.8282 -74.0704
-38.3542 -38.8342 -73.9887
-38.1938 -38.8388 -73.9235
-38.0435 -38.8384 -73.9162
-37.9016 -38.8339 -73.9579
-37.7498 -38.8343 -73.9418
-37.5884 -38.8394 -73.8697
-37.4338 -38.8413 -73.8366
-37.2796 -38.8429 -73.806
-37.1291 -38.8428 -73.7965
-36.9822 -38.8408 -73.8084
-36.8247 -38.8442 -73.7569
-36.6702 -38.846 -73.7235
-36.5239 -38.8437 -73.7387
-36.3801 -38.8402 -73.7686
-36.2299 -38.8399 -73.7607
-36.0707 -38.8443 -73.6974
-35.9129 -38.848 -73.6422
-35.7599 -38.8492 -73.6162
-35.6087 -38.8496 -73.6004
-35.4588 -38.8492 -73.5931
-35.311 -38.8478 -73.5983
-35.1596 -38.8482 -73.5816
-35.0027 -38.8516 -73.5298
-34.843 -38.8566 -73.4598
-34.6853 -38.8606 -73.4014
-34.5299 -38.8633 -73.358
-34.3751 -38.8658 -73.317
-34.2208 -38.868 -73.2793
-34.0681 -38.8694 -73.2514
-33.9175 -38.8696 -73.2371
-33.7705 -38.8679 -73.2459
-33.6267 -38.8643 -73.2752
-33.4821 -38.8612 -73.3002
-33.3357 -38.8591 -73.3133
-33.1909 -38.856 -73.3371
-33.0496 -38.851 -73.3839
-32.9071 -38.8466 -73.4233
-32.7595 -38.8451 -73.4292
-32.6084 -38.8456 -73.4108
-32.455 -38.8475 -73.377
-32.3 -38.8504 -73.3316
-32.1468 -38.8522 -73.2987
-31.9968 -38.8521 -73.2869
-31.8465 -38.8523 -73.2726
-31.6939 -38.8539 -73.2423
-31.5412 -38.8555 -73.2112
-31.3907 -38.8559 -73.1949
-31.2414 -38.8555 -73.1875
-31.0929 -38.8546 -73.1853
-30.9455 -38.8531 -73.191
-30.7983 -38.8515 -73.1981
-30.6478 -38.8519 -73.1807
-30.4928 -38.8551 -73.1314
-30.3371 -38.8588 -73.0758
-30.1843 -38.8608 -73.041
-30.0346 -38.8607 -73.0291
-29.8833 -38.8617 -73.0051
-29.7286 -38.865 -72.9545
-29.5741 -38.8682 -72.9057
-29.4224 -38.8695 -72.8774
-29.2728 -38.8696 -72.8644
-29.1229 -38.8699 -72.8492
-28.9729 -38.8702 -72.8324
-28.8247 -38.8694 -72.8299
-28.6771 -38.8682 -72.8315
-28.5279 -38.868 -72.821
-28.3803 -38.8669 -72.8224
-28.2336 -38.8651 -72.8312
-28.0838 -38.8653 -72.8158
-27.9347 -38.8651 -72.8054
-27.7868 -38.8642 -72.8045
-27.6386 -38.8634 -72.8006
-27.4911 -38.8621 -72.8032
-27.3443 -38.8604 -72.8111
-27.1959 -38.8598 -72.8056
-27.0445 -38.8613 -72.7754
-26.8914 -38.864 -72.7314
-26.742 -38.8642 -72.7172
-26.5984 -38.8602 -72.7511
-26.4557 -38.8555 -72.7929
-26.3104 -38.8527 -72.8134
-26.164 -38.8506 -72.8251
-26.0186 -38.8478 -72.8449
-25.8736 -38.8447 -72.8691
-25.7281 -38.8419 -72.8887
-25.583 -38.8388 -72.9121
-25.4371 -38.8363 -72.9284
-25.2885 -38.8359 -72.9211
-25.1403 -38.8351 -72.9175
-24.9952 -38.832 -72.9409
-24.8499 -38.8289 -72.964
-24.7026 -38.8275 -72.9682
-24.5557 -38.8257 -72.9763
-24.4095 -38.8234 -72.9906
-24.2614 -38.8225 -72.9877
-24.1107 -38.8237 -72.961
-23.9592 -38.8256 -72.9255
-23.8079 -38.8274 -72.8922
-23.6583 -38.8279 -72.8741
-23.5125 -38.8252 -72.8923
-23.3688 -38.8208 -72.9311
-23.2244 -38.8169 -72.9628
-23.0776 -38.815 -72.9725
-22.9283 -38.8152 -72.9575
-22.7787 -38.8157 -72.9381
-22.6304 -38.8151 -72.9324
-22.483 -38.8137 -72.9358
-22.3356 -38.8123 -72.9388
-22.1883 -38.8109 -72.9426
-22.0416 -38.8088 -72.9534
-21.895 -38.8068 -72.964
-21.7472 -38.8057 -72.9639
-21.5992 -38.8049 -72.96
-21.4513 -38.8039 -72.9585
-21.3037 -38.8027 -72.9596
-21.1568 -38.8009 -72.9673
-21.009 -38.7998 -72.9663
-20.8588 -38.8011 -72.9389
-20.7077 -38.8031 -72.9016
-20.5584 -38.8036 -72.8827
-20.4116 -38.8017 -72.8918
-20.2659 -38.7987 -72.9134
-20.1181 -38.7977 -72.9115
-19.9657 -38.8013 -72.8567
-19.8102 -38.808 -72.765
-19.6558 -38.8138 -72.6846
-19.5042 -38.8169 -72.6356
-19.3543 -38.8182 -72.6067
-19.2058 -38.8183 -72.5931
-19.0582 -38.8173 -72.5905
-18.9101 -38.8169 -72.5818
-18.7609 -38.8177 -72.5597
-18.6123 -38.8179 -72.5436
-18.4649 -38.8168 -72.5433
-18.3175 -38.8157 -72.5422
-18.1696 -38.8152 -72.5346
-18.0217 -38.8147 -72.527
-17.8731 -38.815 -72.5103
-17.7239 -38.816 -72.4855
-17.5756 -38.8159 -72.4726
-17.428 -38.8152 -72.4678
-17.2796 -38.8153 -72.4528
-17.131 -38.8158 -72.4337
-16.9829 -38.8156 -72.4226
-16.8349 -38.8154 -72.4115
-16.6866 -38.8155 -72.3965
-16.5393 -38.8145 -72.3943
-16.3931 -38.8122 -72.408
-16.2466 -38.8101 -72.4183
-16.0992 -38.8091 -72.416
-15.9514 -38.8087 -72.4075
-15.8038 -38.8081 -72.4008
-15.6565 -38.8071 -72.3991
-15.5092 -38.806 -72.3972
-15.3617 -38.8053 -72.3925
-15.2139 -38.8049 -72.383
-15.0659 -38.8048 -72.3699
-14.9192 -38.8031 -72.3768
-14.7732 -38.8003 -72.3953
-14.6276 -38.7968 -72.4219
-14.4831 -38.7918 -72.4662
-14.3395 -38.7854 -72.5267
-14.1956 -38.7793 -72.5836
-14.0501 -38.7755 -72.6136
-39.28 -38.9732 -74.1717
-39.1072 -38.9834 -74.04
-38.9424 -38.9898 -73.9521
-38.7911 -38.9899 -73.9398
-38.6675 -38.9767 -74.0845
-38.5181 -38.9758 -74.0831
-38.3525 -38.9828 -73.9892
-38.1926 -38.9871 -73.9275
-38.042 -38.9868 -73.9185
-37.8958 -38.9845 -73.935
-37.7409 -38.9864 -73.9008
-37.5834 -38.9896 -73.8513
-37.4299 -38.9909 -73.8246
-37.2795 -38.9906 -73.8161
-37.1304 -38.9897 -73.8151
-36.9803 -38.9894 -73.8076
-36.8233 -38.9925 -73.7593
-36.6682 -38.9946 -73.7221
-36.52 -38.9933 -73.726
-36.375 -38.9904 -73.7487
-36.2268 -38.9891 -73.7527
-36.0713 -38.9915 -73.7118
-35.9143 -38.9948 -73.6617
-35.7595 -38.9969 -73.6245
-35.6051 -38.9989 -73.5895
-35.4546 -38.9989 -73.5781
-35.3078 -38.9969 -73.5897
-35.1578 -38.9966 -73.581
-34.9993 -39.0009 -73.5192
-34.8401 -39.0055 -73.4528
-34.6845 -39.0083 -73.4077
-34.5295 -39.0108 -73.3667
-34.3733 -39.014 -73.3172
-34.2166 -39.0174 -73.264
-34.0623 -39.0197 -73.2258
-33.9118 -39.0199 -73.2115
-33.764 -39.0186 -73.2146
-33.6172 -39.0167 -73.2249
-33.469 -39.0157 -73.2254
-33.32 -39.015 -73.2211
-33.1741 -39.0126 -73.237
-33.0365 -39.0056 -73.3081
-32.9011 -38.9972 -73.395
-32.7537 -38.9956 -73.4019
-32.6026 -38.9962 -73.3834
-32.4511 -38.9969 -73.3621
-32.2977 -38.9988 -73.3281
-32.1448 -39.0004 -73.2967
-31.9943 -39.0007 -73.2816
-31.8442 -39.0008 -73.2685
-31.6917 -39.0022 -73.2392
-31.5386 -39.0041 -73.205
-31.3882 -39.0044 -73.1897
-31.2389 -39.004 -73.1816
-31.0898 -39.0035 -73.175
-30.9418 -39.0023 -73.1768
-30.7941 -39.001 -73.1798
-30.6443 -39.001 -73.1679
-30.4917 -39.0027 -73.1354
-30.3377 -39.0053 -73.0926
-30.1843 -39.0076 -73.0536
-30.033 -39.0086 -73.0298
-29.8811 -39.0099 -73.0012
-29.7265 -39.0131 -72.952
-29.572 -39.0162 -72.903
-29.4204 -39.0175 -72.8752
-29.2706 -39.0177 -72.8603
-29.1199 -39.0185 -72.8385
-28.969 -39.0194 -72.8153
-28.8196 -39.0194 -72.8036
-28.6706 -39.0191 -72.7942
-28.5206 -39.0195 -72.7771
-28.372 -39.019 -72.7706
-28.2251 -39.0174 -72.7774
-28.0768 -39.0166 -72.7735
-27.9288 -39.0157 -72.7718
-27.7808 -39.0149 -72.7691
-27.6321 -39.0144 -72.762
-27.4853 -39.0127 -72.7697
-27.3403 -39.0097 -72.792
-27.1942 -39.0075 -72.8052
-27.0449 -39.0076 -72.7921
-26.8938 -39.0089 -72.7642
-26.7454 -39.0083 -72.7585
-26.6021 -39.004 -72.7962
-26.4596 -38.9992 -72.8402
-26.314 -38.9966 -72.8577
-26.1663 -38.9955 -72.8588
-26.019 -38.9941 -72.8623
-25.8729 -38.9918 -72.8766
-25.7268 -38.9895 -72.8912
-25.5814 -38.9866 -72.9118
-25.4353 -38.9842 -72.9268
-25.2869 -38.9836 -72.9215
-25.1392 -38.9825 -72.9217
-24.9942 -38.9793 -72.9467
-24.8489 -38.9763 -72.9693
-24.7011 -38.9752 -72.9688
-24.5532 -38.9742 -72.9683
-24.407 -38.9718 -72.983
-24.2599 -38.9702 -72.989
-24.1092 -38.9714 -72.9622
-23.9566 -38.9742 -72.9161
-23.8052 -38.976 -72.8816
-23.6568 -38.9755 -72.8752
-23.5107 -38.9731 -72.8901
-23.3659 -38.9696 -72.9181
-23.222 -38.9654 -72.9548
-23.076 -38.9628 -72.9723
-22.9272 -38.9626 -72.9614
-22.7778 -38.9629 -72.9448
-22.6292 -38.9625 -72.9364
-22.481 -38.9618 -72.9316
-22.3327 -38.9613 -72.9248
-22.1848 -38.9603 -72.9228
-22.0382 -38.9582 -72.9344
-21.8919 -38.9558 -72.949
-21.7448 -38.9543 -72.9542
-21.597 -38.9532 -72.9532
-21.4488 -38.9525 -72.9482
-21.3003 -38.9522 -72.9394
-21.1524 -38.9512 -72.9373
-21.0043 -38.9505 -72.9325
-20.8545 -38.9514 -72.9087
-20.7033 -38.9536 -72.8693
-20.5522 -38.9558 -72.8306
-20.4035 -38.9557 -72.8185
-20.2575 -38.953 -72.8364
-20.1103 -38.9515 -72.8405
-19.9573 -38.9557 -72.7783
-19.801 -38.9633 -72.676
-19.6466 -38.969 -72.5951
-19.4958 -38.9714 -72.5542
-19.3468 -38.9718 -72.5356
-19.1992 -38.9709 -72.5325
-19.0528 -38.9689 -72.5431
-18.9049 -38.9683 -72.5369
-18.7558 -38.969 -72.5151
-18.6077 -38.9687 -72.5051
-18.4607 -38.9672 -72.5092
-18.3136 -38.9658 -72.5116
-18.1661 -38.9649 -72.509
-18.0186 -38.9639 -72.5066
-17.8703 -38.9639 -72.4939
-17.7209 -38.9651 -72.4662
-17.5725 -38.9652 -72.4508
-17.4248 -38.9646 -72.4446
-17.2767 -38.9644 -72.4332
-17.1292 -38.9636 -72.4294
-16.9821 -38.9622 -72.4313
-16.8338 -38.9623 -72.4168
-16.6848 -38.9633 -72.3908
-16.5371 -38.9628 -72.3837
-16.3911 -38.9601 -72.4012
-16.2449 -38.9577 -72.4159
-16.0977 -38.9566 -72.4152
-15.9498 -38.9562 -72.4058
-15.8019 -38.956 -72.3949
-15.6542 -38.9554 -72.3872
-15.5069 -38.9544 -72.3853
-15.3599 -38.953 -72.3876
-15.2126 -38.9521 -72.385
-15.0644 -38.9523 -72.3689
-14.9164 -38.9522 -72.3554
-14.7694 -38.9509 -72.357
-14.6233 -38.9481 -72.3756
-14.4786 -38.9436 -72.4151
-14.3346 -38.9379 -72.4681
-14.1903 -38.9324 -72.5177
-14.0455 -38.9276 -72.5601
-39.4368 -39.1186 -74.2238
-39.2704 -39.1257 -74.1285
-39.1042 -39.1326 -74.0338
-38.9432 -39.1373 -73.967
-38.7947 -39.136 -73.9705
-38.6586 -39.1288 -74.0441
-38.5081 -39.1285 -74.0366
-38.3475 -39.133 -73.9711
-38.1902 -39.136 -73.924
-38.0398 -39.1356 -73.9164
-37.8891 -39.1355 -73.9065
-37.7357 -39.1366 -73.8811
-37.5805 -39.1387 -73.8446
-37.4281 -39.1394 -73.8245
-37.2802 -39.1379 -73.8306
-37.1334 -39.1359 -73.843
-36.9819 -39.1362 -73.8281
-36.8252 -39.1391 -73.7815
-36.6685 -39.142 -73.735
-36.5172 -39.1423 -73.7196
-36.3695 -39.1407 -73.7265
-36.2211 -39.1395 -73.7291
-36.0693 -39.1401 -73.7105
-35.9146 -39.1421 -73.6744
-35.7594 -39.1444 -73.635
-35.6051 -39.1463 -73.6003
-35.4535 -39.1468 -73.5826
-35.3037 -39.1465 -73.575
-35.1521 -39.147 -73.5568
-34.9952 -39.1504 -73.5047
-34.8395 -39.1531 -73.4599
-34.686 -39.1547 -73.4286
-34.5303 -39.1576 -73.3827
-34.3722 -39.1618 -73.321
-34.2138 -39.1661 -73.2569
-34.0582 -39.1691 -73.2102
-33.907 -39.1696 -73.192
-33.7578 -39.169 -73.1863
-33.6079 -39.1689 -73.1757
-33.4566 -39.1696 -73.1553
-33.3045 -39.1707 -73.1301
-33.1572 -39.1692 -73.1363
-33.0241 -39.1597 -73.2369
-32.8984 -39.1459 -73.3885
-32.7454 -39.1475 -73.3576
-32.5939 -39.1483 -73.3362
-32.4446 -39.1478 -73.3297
-32.2938 -39.1482 -73.313
-32.1416 -39.1494 -73.2865
-31.9915 -39.1494 -73.2737
-31.8424 -39.1489 -73.2682
-31.6896 -39.1505 -73.2368
-31.5363 -39.1524 -73.2011
-31.3859 -39.1527 -73.1854
-31.2374 -39.1519 -73.1831
-31.0883 -39.1514 -73.1769
-30.9385 -39.1513 -73.1654
-30.7891 -39.1511 -73.1559
-30.6388 -39.1513 -73.1407
-30.4881 -39.1518 -73.1221
-30.3369 -39.1527 -73.099
-30.1842 -39.1545 -73.0656
-30.0311 -39.1566 -73.028
-29.8777 -39.1589 -72.9883
-29.7233 -39.1619 -72.9403
-29.5695 -39.1645 -72.8966
-29.4183 -39.1656 -72.8717
-29.268 -39.166 -72.8536
-29.117 -39.167 -72.8297
-28.966 -39.168 -72.8057
-28.8165 -39.168 -72.7926
-28.6671 -39.168 -72.7804
-28.5173 -39.1683 -72.7643
-28.3679 -39.1683 -72.7512
-28.2194 -39.1677 -72.746
-28.0729 -39.1658 -72.7557
-27.9273 -39.1633 -72.7726
-27.7792 -39.1625 -72.7702
-27.6295 -39.1627 -72.7543
-27.4821 -39.1615 -72.7569
-27.3379 -39.158 -72.7855
-27.1932 -39.1548 -72.8102
-27.0455 -39.1537 -72.8112
-26.896 -39.1538 -72.7963
-26.7489 -39.1523 -72.802
-26.6059 -39.1479 -72.8415
-26.4631 -39.1433 -72.8833
-26.316 -39.1417 -72.8892
-26.1663 -39.1421 -72.8721
-26.0169 -39.1421 -72.8587
-25.8694 -39.1409 -72.8602
-25.7269 -39.1359 -72.9066
-25.582 -39.1327 -72.9314
-25.4343 -39.1316 -72.9322
-25.285 -39.1316 -72.9184
-25.1372 -39.1306 -72.9184
-24.9926 -39.127 -72.9471
-24.8476 -39.1238 -72.9721
-24.6993 -39.1231 -72.9674
-24.5503 -39.123 -72.9562
-24.4034 -39.1212 -72.9643
-24.2567 -39.1193 -72.974
-24.1066 -39.12 -72.9526
-23.9543 -39.1225 -72.9097
-23.8036 -39.1238 -72.8817
-23.6558 -39.1227 -72.8807
-23.5093 -39.1207 -72.8919
-23.3631 -39.1184 -72.9062
-23.2188 -39.1144 -72.9398
-23.074 -39.111 -72.9678
-22.9262 -39.1099 -72.9674
-22.7774 -39.1097 -72.9564
-22.6284 -39.1097 -72.9436
-22.4793 -39.1097 -72.9301
-22.3305 -39.1095 -72.9188
-22.1828 -39.1084 -72.9183
-22.0363 -39.1063 -72.9307
-21.8897 -39.1043 -72.9413
-21.742 -39.1031 -72.9416
-21.5939 -39.1024 -72.9369
-21.4451 -39.1023 -72.9249
-21.2958 -39.1026 -72.9078
-21.1467 -39.1028 -72.8918
-20.997 -39.1036 -72.8693
-20.8462 -39.1054 -72.8344
-20.6946 -39.1079 -72.791
-20.5435 -39.1102 -72.7513
-20.3947 -39.1103 -72.7362
-20.2492 -39.1072 -72.7595
-20.1032 -39.1046 -72.7764
-19.9507 -39.1083 -72.7198
-19.7947 -39.1155 -72.6211
-19.641 -39.1206 -72.5468
-19.4908 -39.1223 -72.5137
-19.3423 -39.1223 -72.4993
-19.1947 -39.1214 -72.4963
-19.0482 -39.1194 -72.5066
-18.9003 -39.119 -72.4984
-18.7514 -39.1194 -72.4792
-18.6041 -39.1183 -72.479
-18.4576 -39.1163 -72.4887
-18.3106 -39.1149 -72.4921
-18.163 -39.1141 -72.4881
-18.0152 -39.1134 -72.4821
-17.8668 -39.1135 -72.4676
-17.7177 -39.1144 -72.4427
-17.5686 -39.1153 -72.4185
-17.4199 -39.1158 -72.3997
-17.2723 -39.1151 -72.3941
-17.1265 -39.1123 -72.4129
-16.9811 -39.1091 -72.4373
-16.8333 -39.1085 -72.4304
-16.6841 -39.1097 -72.4021
-16.5359 -39.1098 -72.3872
-16.3891 -39.1081 -72.3936
-16.2425 -39.1062 -72.4024
-16.0955 -39.1049 -72.4043
-15.9482 -39.1038 -72.4025
-15.8005 -39.1032 -72.3956
-15.6526 -39.103 -72.3849
-15.5051 -39.1022 -72.38
-15.3582 -39.1008 -72.3829
-15.2108 -39.0999 -72.3792
-15.0625 -39.1002 -72.3622
-14.9139 -39.101 -72.3383
-14.7657 -39.1012 -72.3219
-14.6194 -39.099 -72.3342
-14.4747 -39.0943 -72.3749
-14.3301 -39.0895 -72.4175
-14.1851 -39.0852 -72.4541
-14.0398 -39.0813 -72.4861
-39.599 -39.2617 -74.3051
-39.4375 -39.2663 -74.2379
-39.2629 -39.2771 -74.0966
-39.0994 -39.2827 -74.0172
-38.9459 -39.2838 -73.9927
-38.7959 -39.2832 -73.9876
-38.6498 -39.2808 -74.0046
-38.4996 -39.2803 -73.9989
-38.3426 -39.2831 -73.9538
-38.1879 -39.2848 -73.9212
-38.0378 -39.2844 -73.9151
-37.8864 -39.2845 -73.9015
-37.733 -39.2857 -73.876
-37.5787 -39.2872 -73.8451
-37.4265 -39.2879 -73.8258
-37.2791 -39.2861 -73.8347
-37.1331 -39.2837 -73.8523
-36.9831 -39.2832 -73.8456
-36.8267 -39.286 -73.8011
-36.6691 -39.2893 -73.7494
-36.5149 -39.291 -73.7167
-36.3645 -39.2908 -73.707
-36.2158 -39.2898 -73.7075
-36.0659 -39.2893 -73.7011
-35.9136 -39.2901 -73.6795
-35.7589 -39.2922 -73.6429
-35.6048 -39.2939 -73.6098
-35.4513 -39.2954 -73.5798
-35.2973 -39.2972 -73.5467
-35.1435 -39.2989 -73.5139
-34.9909 -39.2999 -73.4892
-34.8406 -39.2998 -73.4782
-34.6873 -39.3014 -73.4478
-34.5259 -39.3072 -73.3659
-34.3676 -39.3114 -73.3028
-34.2085 -39.3161 -73.2341
-34.0522 -39.3194 -73.1831
-33.9012 -39.3198 -73.1654
-33.7521 -39.3193 -73.1603
-33.6022 -39.3191 -73.1493
-33.45 -39.3203 -73.1236
