53.4201 -65.7744 9.3358
53.5205 -65.7726 9.3514
53.623 -65.7714 9.3545
53.7289 -65.7713 9.3364
53.8379 -65.7723 9.2989
53.9477 -65.7735 9.2566
54.0551 -65.7739 9.2294
54.1593 -65.7733 9.2217
54.2627 -65.7724 9.2195
54.3663 -65.7716 9.216
54.4702 -65.7709 9.211
54.5742 -65.7702 9.2047
54.6772 -65.7692 9.2056
54.78 -65.7681 9.2069
29.6612 -66.135 9.0162
29.7578 -66.1294 9.0998
29.8545 -66.124 9.1819
29.9529 -66.1199 9.2385
30.0524 -66.1167 9.2778
30.153 -66.1143 9.3011
30.2542 -66.1125 9.315
30.3549 -66.1104 9.3354
30.4537 -66.1067 9.3838
30.5504 -66.1015 9.4604
30.6477 -66.0968 9.5288
30.748 -66.0943 9.5542
30.8516 -66.0944 9.5333
30.9566 -66.0955 9.4927
31.0623 -66.0971 9.4422
31.1675 -66.0983 9.3991
31.2703 -66.0976 9.391
31.3705 -66.0952 9.4173
31.4705 -66.0926 9.4459
31.5722 -66.0911 9.4528
31.6758 -66.0911 9.4327
31.7805 -66.0919 9.3983
31.8852 -66.0926 9.3648
31.9896 -66.093 9.3356
32.0931 -66.0929 9.318
32.1951 -66.0917 9.3205
32.2961 -66.0897 9.3369
32.3968 -66.0877 9.3555
32.4983 -66.0861 9.3646
32.6013 -66.0856 9.354
32.7056 -66.0859 9.3278
32.8098 -66.0862 9.302
32.913 -66.0858 9.2897
33.0149 -66.0845 9.2942
33.116 -66.0827 9.308
33.2175 -66.0811 9.3174
33.3197 -66.08 9.3176
33.4223 -66.0792 9.3134
33.5247 -66.0782 9.3114
33.6265 -66.0768 9.3171
33.7275 -66.075 9.3322
33.828 -66.0727 9.3538
33.9287 -66.0707 9.3715
34.0306 -66.0694 9.3756
34.1331 -66.0685 9.3725
34.2348 -66.0671 9.3789
34.3352 -66.0649 9.4011
34.4347 -66.0622 9.4321
34.5346 -66.0596 9.4596
34.6357 -66.0579 9.4726
34.7381 -66.0569 9.471
34.8404 -66.0559 9.4702
34.9415 -66.0542 9.4823
35.0422 -66.0522 9.5
35.1436 -66.0506 9.5097
35.2463 -66.0499 9.5031
35.3509 -66.0502 9.477
35.4564 -66.0511 9.4396
35.5623 -66.0522 9.3997
35.6684 -66.0534 9.3566
35.7747 -66.0547 9.3121
35.8807 -66.0558 9.2718
35.9869 -66.057 9.2298
36.0924 -66.0578 9.1951
36.1952 -66.057 9.1901
36.2962 -66.0551 9.2048
36.3979 -66.0537 9.2118
36.5011 -66.0531 9.2032
36.6046 -66.0527 9.1915
36.7073 -66.0518 9.1879
36.81 -66.0509 9.1847
36.9139 -66.0507 9.1694
37.0169 -66.05 9.1624
37.1176 -66.048 9.18
37.2172 -66.0453 9.2095
37.3174 -66.0431 9.2322
37.419 -66.0416 9.2408
37.5208 -66.0402 9.2473
37.6212 -66.0381 9.2674
37.7207 -66.0354 9.2969
37.8206 -66.0331 9.3217
37.9214 -66.0312 9.3376
38.0226 -66.0295 9.3501
38.1235 -66.0277 9.364
38.2241 -66.0257 9.3819
38.3242 -66.0234 9.4043
38.4241 -66.0211 9.429
38.5236 -66.0185 9.4574
38.6225 -66.0157 9.4915
38.7213 -66.0128 9.5262
38.821 -66.0104 9.5514
38.9227 -66.009 9.5578
39.0257 -66.0083 9.551
39.1287 -66.0076 9.5446
39.2317 -66.007 9.5374
39.3363 -66.007 9.516
39.4429 -66.0081 9.4755
39.5505 -66.0097 9.426
39.658 -66.0113 9.3767
39.7655 -66.0128 9.3289
39.8726 -66.014 9.2854
39.978 -66.0144 9.258
40.0809 -66.0136 9.2536
40.1822 -66.012 9.2644
40.2834 -66.0103 9.2766
40.3855 -66.0091 9.2794
40.4887 -66.0084 9.2728
40.5919 -66.0077 9.2669
40.694 -66.0065 9.2697
40.7953 -66.0049 9.2807
40.896 -66.003 9.2973
40.9961 -66.0008 9.319
41.0956 -65.9984 9.3452
41.1953 -65.996 9.3704
41.2964 -65.9943 9.3829
41.3994 -65.9935 9.3778
41.5027 -65.9929 9.3702
41.6042 -65.9913 9.3795
41.7041 -65.9891 9.4018
41.8043 -65.987 9.4221
41.9043 -65.9849 9.4429
42.0034 -65.9823 9.4729
42.1024 -65.9796 9.503
42.2035 -65.978 9.5147
42.3062 -65.9771 9.5125
42.4084 -65.976 9.5141
42.5095 -65.9743 9.5261
42.6101 -65.9724 9.542
42.7109 -65.9706 9.5557
42.8126 -65.9693 9.5619
42.9156 -65.9685 9.5576
43.0191 -65.9679 9.5486
43.1225 -65.9673 9.5405
43.2256 -65.9666 9.5354
43.3287 -65.9658 9.5304
43.4324 -65.9653 9.52
43.5372 -65.9653 9.5007
43.6429 -65.9657 9.4743
43.7486 -65.966 9.4479
43.8539 -65.9662 9.4253
43.9596 -65.9665 9.3999
44.0655 -65.9669 9.3723
44.1709 -65.9671 9.3494
44.2757 -65.967 9.3316
44.38 -65.9667 9.318
44.4838 -65.9662 9.3083
44.5877 -65.9657 9.2979
44.6921 -65.9655 9.2837
44.7965 -65.9652 9.2695
44.8998 -65.9644 9.2639
45.0019 -65.9632 9.2683
45.1028 -65.9614 9.2818
45.2034 -65.9596 9.2983
45.3055 -65.9583 9.3027
45.4092 -65.9577 9.2938
45.5131 -65.9572 9.2846
45.6159 -65.9563 9.2831
45.7172 -65.9547 9.2935
45.8176 -65.9527 9.3111
45.9188 -65.9511 9.3223
46.0214 -65.9501 9.323
46.1241 -65.9491 9.3224
46.226 -65.9477 9.3286
46.3268 -65.946 9.3426
46.4266 -65.9438 9.3645
46.5252 -65.9412 9.3953
46.6231 -65.9383 9.4309
46.7216 -65.9356 9.4619
46.8218 -65.9336 9.4805
46.9233 -65.9322 9.4887
47.0251 -65.9308 9.4952
47.1264 -65.9293 9.5052
47.2276 -65.9277 9.5154
47.3299 -65.9265 9.5182
47.4338 -65.926 9.5086
47.539 -65.926 9.49
47.6437 -65.9258 9.4748
47.747 -65.925 9.4702
47.8494 -65.9239 9.4723
47.9512 -65.9225 9.4785
48.0526 -65.921 9.4881
48.1547 -65.9198 9.492
48.2595 -65.9196 9.4766
48.3676 -65.9206 9.4376
48.4783 -65.9226 9.3809
48.5895 -65.9248 9.3206
48.6985 -65.9261 9.2763
48.8028 -65.9257 9.265
48.9036 -65.9239 9.2796
49.0046 -65.9222 9.2922
49.109 -65.9218 9.2807
49.217 -65.9227 9.2445
49.3266 -65.9242 9.1968
49.4353 -65.9253 9.1559
49.54 -65.925 9.143
49.64 -65.923 9.1629
49.738 -65.9202 9.1969
49.8361 -65.9174 9.2297
49.9367 -65.9156 9.2449
50.0413 -65.9153 9.2327
50.1475 -65.9154 9.2102
50.2532 -65.9155 9.1905
50.3594 -65.9156 9.1679
50.4662 -65.916 9.1415
50.5712 -65.9157 9.1278
50.673 -65.9143 9.1354
50.7732 -65.9124 9.1535
50.8734 -65.9104 9.1716
50.9743 -65.9087 9.1853
51.0771 -65.9076 9.186
51.182 -65.9074 9.1724
51.2861 -65.9067 9.1651
51.3871 -65.9051 9.1775
51.4871 -65.903 9.1972
51.5885 -65.9015 9.207
51.6923 -65.9008 9.2016
51.7967 -65.9003 9.1919
51.8998 -65.8994 9.1908
52.0012 -65.8979 9.2005
52.101 -65.8958 9.2215
52.1991 -65.8931 9.2529
52.297 -65.8904 9.285
52.3965 -65.8882 9.3074
52.4976 -65.8866 9.319
52.6 -65.8855 9.3225
52.7032 -65.8846 9.3205
52.8063 -65.8836 9.3195
52.9084 -65.8823 9.3249
53.01 -65.8809 9.333
53.1124 -65.8797 9.3364
53.2153 -65.8787 9.3372
53.3173 -65.8774 9.343
53.4188 -65.8759 9.3518
53.5211 -65.8747 9.3559
53.6247 -65.8739 9.3522
53.73 -65.8737 9.3372
53.8378 -65.8743 9.3072
53.9464 -65.8751 9.2723
54.0534 -65.8754 9.2475
54.1584 -65.8751 9.2356
54.2624 -65.8744 9.2295
54.3667 -65.8738 9.2217
54.4719 -65.8735 9.2086
54.5778 -65.8734 9.1908
54.6833 -65.8732 9.1761
54.785 -65.8718 9.1847
54.8838 -65.8694 9.2106
29.5626 -66.2403 8.9789
29.6583 -66.2338 9.0785
29.7545 -66.228 9.1677
29.8525 -66.2235 9.2307
29.9512 -66.2196 9.2822
30.051 -66.2167 9.3165
30.1516 -66.2144 9.3389
30.2522 -66.2121 9.3614
30.3525 -66.2096 9.3887
30.4524 -66.2068 9.4199
30.5518 -66.2036 9.4585
30.651 -66.2003 9.5007
30.7516 -66.1981 9.5219
30.8541 -66.1974 9.5149
30.958 -66.1976 9.4902
31.0623 -66.1982 9.4595
31.1663 -66.1985 9.434
31.2689 -66.1978 9.4268
31.3703 -66.1961 9.4378
31.4718 -66.1946 9.4464
31.5745 -66.1939 9.4383
31.6783 -66.1941 9.4159
31.7828 -66.1947 9.3844
31.8875 -66.1954 9.3511
31.9917 -66.1958 9.3237
32.0947 -66.1953 9.3131
32.196 -66.1935 9.3257
32.2965 -66.1913 9.3475
32.3975 -66.1894 9.3629
32.4999 -66.1884 9.3608
32.6039 -66.1886 9.3378
32.7085 -66.1891 9.3067
32.8125 -66.1893 9.2837
32.9154 -66.1887 9.2757
33.0169 -66.1871 9.2853
33.1175 -66.185 9.3052
33.2188 -66.1832 9.3176
33.3212 -66.1823 9.3147
33.4243 -66.1817 9.305
33.5268 -66.1809 9.3012
33.6284 -66.1794 9.3094
33.729 -66.1772 9.3294
33.8291 -66.1748 9.3552
33.9296 -66.1726 9.3762
34.0314 -66.1712 9.3817
34.1342 -66.1705 9.3746
34.2365 -66.1695 9.3742
34.3371 -66.1674 9.3927
34.437 -66.1649 9.42
34.5373 -66.1626 9.4436
34.6384 -66.1608 9.4567
34.7404 -66.1596 9.4589
34.8425 -66.1585 9.4606
34.9435 -66.1567 9.474
35.0438 -66.1544 9.4965
35.1444 -66.1524 9.5142
35.2465 -66.1513 9.5158
35.3507 -66.1514 9.4933
35.4566 -66.1525 9.4524
35.5623 -66.1535 9.414
35.6673 -66.1541 9.3834
35.773 -66.1551 9.3458
35.88 -66.1568 9.2936
35.9877 -66.1589 9.2349
36.0941 -66.1602 9.1899
36.1975 -66.1598 9.1791
36.299 -66.1582 9.1884
36.4013 -66.1571 9.1899
36.5051 -66.1568 9.1746
36.6092 -66.1568 9.1554
36.7118 -66.1558 9.1533
36.8126 -66.1539 9.1707
36.9135 -66.152 9.1862
37.0151 -66.1504 9.1951
37.1163 -66.1487 9.2074
37.2173 -66.1469 9.2223
37.3186 -66.1452 9.2333
37.4204 -66.1438 9.2398
37.5217 -66.1422 9.2509
37.6218 -66.1399 9.2739
37.7216 -66.1374 9.3008
37.822 -66.1353 9.3203
37.9233 -66.1337 9.3315
38.0249 -66.1322 9.3397
38.126 -66.1305 9.3518
38.2264 -66.1283 9.3723
38.3263 -66.126 9.3962
38.4262 -66.1237 9.4205
38.5255 -66.121 9.451
38.6239 -66.1179 9.4896
38.7223 -66.1148 9.5281
38.8221 -66.1124 9.553
38.9241 -66.1112 9.5567
39.0272 -66.1105 9.5487
39.1302 -66.1099 9.5419
39.2331 -66.1091 9.5365
39.3372 -66.1089 9.5198
39.4434 -66.1099 9.4824
39.5507 -66.1113 9.4358
39.6577 -66.1126 9.392
39.7651 -66.1141 9.3449
39.8729 -66.1157 9.2948
39.9791 -66.1166 9.2595
40.0825 -66.116 9.2508
40.1837 -66.1143 9.2623
40.2846 -66.1125 9.2775
40.3866 -66.1112 9.2815
40.4899 -66.1106 9.2742
40.5929 -66.1098 9.2688
40.6947 -66.1084 9.2754
40.7956 -66.1066 9.29
40.8965 -66.1049 9.3037
40.9978 -66.1032 9.3148
41.0987 -66.1014 9.3294
41.1991 -66.0994 9.3477
41.3003 -66.0977 9.3596
41.403 -66.0968 9.3575
41.5059 -66.096 9.3539
41.6067 -66.0941 9.3687
41.7058 -66.0915 9.3977
41.8052 -66.089 9.4253
41.905 -66.0868 9.4483
42.0046 -66.0844 9.4736
42.1042 -66.0821 9.498
42.2055 -66.0805 9.5078
42.3084 -66.0797 9.5043
42.4106 -66.0785 9.5064
42.5112 -66.0766 9.5228
42.6108 -66.0743 9.547
42.7108 -66.0721 9.568
42.8125 -66.0708 9.5734
42.9163 -66.0704 9.5624
43.0202 -66.07 9.5504
43.1231 -66.0692 9.5468
43.2256 -66.0682 9.5461
43.3291 -66.0676 9.5373
43.4348 -66.068 9.5109
43.5417 -66.0689 9.4746
43.6477 -66.0694 9.4454
43.7523 -66.0693 9.4282
43.8567 -66.0691 9.4129
43.9625 -66.0694 9.3869
44.0692 -66.0702 9.353
44.1753 -66.0707 9.3245
44.28 -66.0706 9.3074
44.3833 -66.0699 9.3011
44.4864 -66.069 9.2978
44.59 -66.0685 9.2892
44.6943 -66.0681 9.2762
44.7979 -66.0675 9.2684
44.9002 -66.0663 9.2714
45.0017 -66.0649 9.2799
45.1031 -66.0633 9.29
45.2048 -66.0619 9.2977
45.3079 -66.0611 9.2936
45.412 -66.0607 9.2821
45.5155 -66.06 9.2757
45.6175 -66.0587 9.2808
45.718 -66.0567 9.298
45.8177 -66.0546 9.3202
45.9181 -66.0526 9.3382
46.0192 -66.0509 9.35
46.1207 -66.0494 9.3587
46.2222 -66.0479 9.3678
46.3231 -66.0462 9.3805
46.4236 -66.0443 9.397
46.5234 -66.0422 9.4185
46.6223 -66.0397 9.4467
46.7213 -66.0372 9.4742
46.8219 -66.0354 9.4895
46.9236 -66.034 9.4961
47.0248 -66.0324 9.5065
47.1253 -66.0306 9.5228
47.2262 -66.0289 9.5355
47.3289 -66.0279 9.535
47.434 -66.0278 9.5169
47.5403 -66.0282 9.4902
47.6451 -66.0281 9.4742
47.7476 -66.027 9.4756
47.8487 -66.0254 9.4867
47.9497 -66.0237 9.499
48.0515 -66.0224 9.5053
48.1554 -66.0218 9.4965
48.2618 -66.0222 9.4698
48.3702 -66.0234 9.4288
48.4806 -66.0253 9.3734
48.5916 -66.0274 9.3149
48.7 -66.0285 9.2743
48.8041 -66.028 9.2656
48.9049 -66.0262 9.2797
49.006 -66.0246 9.291
49.1107 -66.0243 9.278
49.2189 -66.0253 9.2398
49.3285 -66.0268 9.1926
49.4368 -66.0278 9.1544
49.5415 -66.0275 9.1419
49.6412 -66.0253 9.164
49.7378 -66.022 9.2069
49.8349 -66.0189 9.2464
49.9357 -66.0172 9.2609
50.0398 -66.0166 9.2519
50.1445 -66.0163 9.2395
50.2494 -66.016 9.2253
50.3563 -66.0164 9.1982
50.4644 -66.0173 9.1628
50.5706 -66.0175 9.1403
50.6727 -66.0162 9.1461
50.7726 -66.0141 9.1659
50.8734 -66.0124 9.1805
50.975 -66.0109 9.1889
51.0773 -66.0097 9.1934
51.1813 -66.0091 9.1858
51.286 -66.0087 9.174
51.3882 -66.0074 9.1793
51.4882 -66.0054 9.1981
51.5894 -66.0038 9.2098
51.6934 -66.0032 9.2027
51.7984 -66.0029 9.1891
51.9014 -66.0019 9.189
52.0017 -66 9.2057
52.1007 -65.9977 9.2315
52.199 -65.9951 9.2616
52.2976 -65.9926 9.29
52.3974 -65.9905 9.3101
52.4986 -65.9889 9.3211
52.6007 -65.9876 9.3264
52.7031 -65.9865 9.3293
52.8057 -65.9854 9.3319
52.9079 -65.9841 9.3362
53.0096 -65.9827 9.3439
53.1115 -65.9814 9.3508
53.214 -65.9802 9.3532
53.3167 -65.9792 9.3549
53.4197 -65.9782 9.3546
53.524 -65.9776 9.3464
53.6287 -65.9772 9.3355
53.7335 -65.9768 9.3236
53.8398 -65.977 9.3027
53.9475 -65.9775 9.2738
54.0545 -65.9778 9.249
54.1599 -65.9776 9.2342
54.2643 -65.977 9.2259
54.3691 -65.9766 9.2152
54.4753 -65.9767 9.1958
54.5822 -65.9769 9.1719
54.6874 -65.9766 9.1588
54.7895 -65.9753 9.1649
54.8882 -65.9729 9.1917
29.0811 -66.3721 8.5336
29.1771 -66.3656 8.6332
29.2701 -66.3566 8.7781
29.3632 -66.3479 8.92
29.4605 -66.3427 8.9961
29.5582 -66.3378 9.0655
29.6549 -66.3323 9.1478
29.752 -66.327 9.225
29.8511 -66.3234 9.2703
29.9502 -66.3199 9.3151
30.0501 -66.317 9.3488
30.1507 -66.3147 9.3711
30.2513 -66.3125 9.3925
30.3517 -66.3101 9.4173
30.4522 -66.3077 9.4406
30.5529 -66.3055 9.462
30.6534 -66.3032 9.4836
30.7545 -66.3013 9.4985
30.8564 -66.3002 9.5004
30.9592 -66.2996 9.4914
31.0623 -66.2992 9.4776
31.1652 -66.2988 9.4661
31.2677 -66.298 9.4612
31.3699 -66.297 9.4597
31.4728 -66.2964 9.4497
31.5766 -66.2966 9.4268
31.681 -66.2971 9.3969
31.7856 -66.2979 9.3637
31.8901 -66.2984 9.3333
31.9937 -66.2984 9.3139
32.096 -66.2973 9.3134
32.1967 -66.2952 9.3329
32.297 -66.2928 9.357
32.3986 -66.2913 9.3656
32.5021 -66.2912 9.3485
32.607 -66.2919 9.3142
32.7116 -66.2925 9.2833
32.8151 -66.2923 9.268
32.9172 -66.2912 9.2686
33.0182 -66.2892 9.2853
33.1184 -66.2868 9.3097
33.2197 -66.2851 9.3214
33.3228 -66.2846 9.3106
33.4266 -66.2845 9.2924
33.5294 -66.2839 9.2848
33.631 -66.2824 9.2927
33.7315 -66.2802 9.3143
33.8313 -66.2775 9.344
33.9312 -66.2749 9.3722
34.0322 -66.2731 9.3865
34.135 -66.2723 9.3806
34.2378 -66.2716 9.3733
34.339 -66.2699 9.3852
34.4394 -66.2677 9.4076
34.5399 -66.2655 9.4281
34.6408 -66.2636 9.4429
34.7424 -66.2622 9.4505
34.8441 -66.2608 9.4564
34.945 -66.2589 9.472
35.0449 -66.2564 9.4981
35.1449 -66.254 9.5233
35.2461 -66.2523 9.5348
35.3498 -66.2522 9.518
35.456 -66.2535 9.473
35.562 -66.2547 9.4311
35.6664 -66.2549 9.4076
35.7716 -66.2556 9.3753
35.8792 -66.2577 9.3161
35.9875 -66.2602 9.251
36.0941 -66.2617 9.2042
36.1982 -66.2616 9.1859
36.3006 -66.2606 9.1852
36.4034 -66.2598 9.1806
36.5077 -66.2598 9.1602
36.6126 -66.2602 9.1336
36.7155 -66.2595 9.1275
36.8153 -66.2569 9.1554
36.9138 -66.2536 9.1968
37.0135 -66.251 9.2252
37.1146 -66.2493 9.2382
37.2166 -66.248 9.2423
37.3188 -66.2468 9.2448
37.4206 -66.2455 9.2503
37.5218 -66.2437 9.2633
37.6222 -66.2416 9.2835
37.7227 -66.2395 9.3021
37.8241 -66.2379 9.3127
37.9257 -66.2365 9.3202
38.0272 -66.2349 9.3293
38.1279 -66.2329 9.3463
38.2273 -66.2303 9.3754
38.3268 -66.2277 9.4045
38.4268 -66.2254 9.4274
38.5265 -66.223 9.4538
38.6252 -66.22 9.49
38.7236 -66.2168 9.5288
38.8231 -66.2143 9.5562
38.9248 -66.213 9.5616
39.028 -66.2124 9.5534
39.1312 -66.2118 9.5452
39.2342 -66.2111 9.5385
39.3382 -66.2109 9.522
39.4445 -66.2119 9.485
39.5517 -66.2133 9.4387
39.6583 -66.2144 9.3988
39.7649 -66.2155 9.3591
39.8723 -66.217 9.3121
39.9788 -66.218 9.2741
40.0826 -66.2177 9.2614
40.1842 -66.2162 9.27
40.2852 -66.2144 9.283
40.3876 -66.2133 9.284
40.4913 -66.2129 9.2725
40.5946 -66.2122 9.2656
40.696 -66.2107 9.2757
40.7964 -66.2086 9.2939
40.8978 -66.2071 9.3039
40.9999 -66.2058 9.3076
41.1014 -66.2043 9.3165
41.2023 -66.2025 9.3309
41.3037 -66.201 9.3404
41.4059 -66.1998 9.3425
41.5077 -66.1984 9.3486
41.6079 -66.1963 9.3688
41.7071 -66.1937 9.3977
41.8067 -66.1913 9.4234
41.9067 -66.1891 9.4448
42.0065 -66.1869 9.4684
42.1063 -66.1846 9.4915
42.2075 -66.183 9.5019
42.3102 -66.1821 9.4997
42.4124 -66.1809 9.5019
42.5129 -66.179 9.5191
42.612 -66.1764 9.5472
42.7114 -66.174 9.5735
42.8129 -66.1725 9.5815
42.9169 -66.1722 9.5681
43.0216 -66.1722 9.5489
43.1254 -66.1718 9.5378
43.228 -66.1708 9.5372
43.3309 -66.17 9.5332
43.437 -66.1706 9.5033
43.5449 -66.1719 9.4586
43.6511 -66.1725 9.428
43.7554 -66.1723 9.4132
43.86 -66.1722 9.3968
43.9659 -66.1726 9.3694
44.0722 -66.1732 9.3387
44.1777 -66.1735 9.3152
44.2819 -66.1731 9.3022
44.3851 -66.1724 9.297
44.4881 -66.1715 9.2938
44.5917 -66.1709 9.2859
44.6957 -66.1705 9.2753
44.7987 -66.1696 9.2727
44.9004 -66.1682 9.2798
45.002 -66.1667 9.2879
45.1039 -66.1654 9.2939
45.2066 -66.1644 9.2937
45.3108 -66.164 9.2815
45.4152 -66.1637 9.2675
45.5178 -66.1627 9.2676
45.6183 -66.1608 9.2846
45.7177 -66.1584 9.3102
45.8172 -66.1561 9.3346
45.9172 -66.154 9.3545
46.0176 -66.152 9.3717
46.118 -66.1501 9.3889
46.2186 -66.1483 9.4044
46.3195 -66.1465 9.418
46.4202 -66.1447 9.4328
46.5209 -66.1429 9.4473
46.6216 -66.1411 9.4616
46.7225 -66.1394 9.4752
46.8243 -66.1381 9.4809
46.9264 -66.1369 9.4847
47.0268 -66.1349 9.5016
47.1254 -66.1323 9.5314
47.225 -66.1301 9.5539
47.3284 -66.1294 9.5484
47.4355 -66.1301 9.5153
47.5428 -66.131 9.4812
47.6469 -66.1305 9.4708
47.7477 -66.1288 9.4845
47.8472 -66.1265 9.5075
47.9473 -66.1245 9.5258
48.0499 -66.1235 9.5258
48.1564 -66.124 9.4981
48.2649 -66.1252 9.4562
48.3738 -66.1266 9.4121
48.4833 -66.1282 9.3636
48.5929 -66.1298 9.3145
48.7005 -66.1306 9.2806
48.8047 -66.1301 9.2703
48.907 -66.1289 9.2738
49.0098 -66.1279 9.2735
49.115 -66.1278 9.2571
49.2226 -66.1286 9.2235
49.3311 -66.1297 9.1834
49.4384 -66.1304 9.1522
49.5422 -66.1297 9.1457
49.6414 -66.1273 9.1712
49.7375 -66.1238 9.2182
49.8346 -66.1207 9.2575
49.9366 -66.1194 9.2636
50.0413 -66.1191 9.2509
50.1452 -66.1185 9.2435
50.2484 -66.1176 9.2416
50.3536 -66.1174 9.2254
50.4618 -66.1183 9.1893
50.569 -66.1189 9.1603
50.6712 -66.1176 9.1652
50.7707 -66.1154 9.1876
50.8718 -66.1138 9.1997
50.9746 -66.1127 9.2009
51.0767 -66.1115 9.2056
51.1791 -66.1103 9.2093
51.2832 -66.1097 9.2013
51.3868 -66.1089 9.1968
51.4882 -66.1074 9.2069
51.5901 -66.106 9.2139
51.6945 -66.1056 9.2037
51.7998 -66.1054 9.1885
51.9026 -66.1043 9.1895
52.0024 -66.1022 9.2097
52.101 -66.0997 9.2383
52.1994 -66.0972 9.2676
52.2984 -66.0948 9.293
52.3985 -66.0928 9.3113
52.4994 -66.0912 9.3242
52.6007 -66.0896 9.3345
52.7026 -66.0883 9.3412
52.8052 -66.0872 9.3429
52.908 -66.0861 9.3441
53.0102 -66.0849 9.3489
53.1124 -66.0837 9.3531
53.2156 -66.0827 9.3517
53.3192 -66.082 9.3476
53.4232 -66.0813 9.341
53.5282 -66.081 9.3281
53.6332 -66.0807 9.3153
53.7379 -66.0803 9.3044
53.8438 -66.0803 9.286
53.951 -66.0807 9.2598
54.0581 -66.081 9.235
54.1636 -66.0808 9.2196
54.2676 -66.0802 9.2138
54.372 -66.0796 9.2053
54.4781 -66.0796 9.1864
54.5844 -66.0797 9.1666
54.6882 -66.0789 9.1622
54.7897 -66.0775 9.1716
54.8903 -66.0756 9.1871
55.0017 -66.0773 9.1364
28.9713 -66.4681 8.6693
29.0682 -66.4624 8.7542
29.1659 -66.4574 8.8264
29.2626 -66.4515 8.914
29.358 -66.4447 9.0186
29.4568 -66.4408 9.0711
29.5565 -66.4375 9.11
29.6537 -66.4324 9.185
29.7517 -66.4279 9.2472
29.8511 -66.4245 9.2897
29.9504 -66.4211 9.331
30.05 -66.418 9.3686
30.1504 -66.4155 9.394
30.2514 -66.4136 9.4106
30.3524 -66.4116 9.4267
30.4531 -66.4095 9.4463
30.5538 -66.4073 9.466
30.6549 -66.4054 9.4802
30.7566 -66.404 9.4866
30.8587 -66.4029 9.4871
30.9609 -66.4019 9.4851
31.063 -66.4009 9.4844
31.1651 -66.3998 9.4852
31.2673 -66.3987 9.4845
31.37 -66.3981 9.4754
31.474 -66.3984 9.4505
31.5787 -66.3992 9.416
31.6835 -66.4001 9.3807
31.7882 -66.4009 9.3463
31.8925 -66.4013 9.3185
31.9957 -66.401 9.3054
32.0975 -66.3996 9.3098
32.1982 -66.3975 9.3296
32.2987 -66.3952 9.3525
32.4005 -66.3939 9.3572
32.5047 -66.3942 9.3306
32.6101 -66.3954 9.2902
32.7145 -66.3958 9.2624
32.8173 -66.3951 9.256
32.9188 -66.3935 9.2652
33.0193 -66.3912 9.2871
33.1195 -66.3888 9.313
33.2209 -66.3872 9.3225
33.3244 -66.387 9.3065
33.4286 -66.3872 9.2825
33.5319 -66.3868 9.2699
33.6339 -66.3856 9.2734
33.7346 -66.3835 9.292
33.8344 -66.3808 9.3226
33.9337 -66.3778 9.357
34.0338 -66.3753 9.3831
34.1357 -66.3741 9.3869
34.2386 -66.3734 9.3796
34.3405 -66.3722 9.3828
34.4414 -66.3702 9.3991
34.5419 -66.368 9.4196
34.6425 -66.366 9.438
34.7437 -66.3643 9.4503
34.845 -66.3626 9.461
34.9455 -66.3605 9.4802
35.0452 -66.3578 9.5096
35.1447 -66.3551 9.5402
35.2454 -66.3531 9.5575
35.3489 -66.3529 9.5422
35.4558 -66.3547 9.4901
35.5626 -66.3564 9.439
35.6671 -66.3567 9.4136
35.7719 -66.3572 9.3858
35.8792 -66.3591 9.3305
35.9871 -66.3614 9.2696
36.0932 -66.3626 9.228
36.1974 -66.3626 9.2079
36.3007 -66.3621 9.1976
36.4045 -66.3619 9.1827
36.5095 -66.3623 9.1549
36.615 -66.3631 9.1215
36.7189 -66.3629 9.1055
36.8192 -66.3606 9.1284
36.9166 -66.3567 9.1804
37.014 -66.3528 9.2332
37.1139 -66.3503 9.2596
37.2159 -66.3491 9.2631
37.3184 -66.3481 9.2619
37.4205 -66.3469 9.2645
37.5221 -66.3454 9.2725
37.623 -66.3435 9.2882
37.7242 -66.3418 9.3003
37.8261 -66.3405 9.3048
37.9278 -66.3391 9.3115
38.0289 -66.3373 9.3245
38.1289 -66.335 9.3483
38.2277 -66.332 9.3849
38.3265 -66.329 9.4204
38.4264 -66.3266 9.4447
38.5264 -66.3244 9.4671
38.6258 -66.3217 9.4969
38.7245 -66.3187 9.5324
38.8238 -66.3161 9.5612
38.9253 -66.3146 9.5696
39.0283 -66.314 9.5624
39.1316 -66.3135 9.5532
39.2349 -66.3129 9.5443
39.3391 -66.3129 9.5256
39.4455 -66.3139 9.4874
39.553 -66.3155 9.4387
39.6595 -66.3166 9.399
39.7654 -66.3173 9.3666
39.8718 -66.3183 9.329
39.9779 -66.3192 9.2943
40.082 -66.3189 9.2796
40.1839 -66.3176 9.2846
40.2854 -66.3161 9.2936
40.3882 -66.3152 9.2904
40.4926 -66.3151 9.2728
40.5966 -66.3148 9.2589
40.6981 -66.3133 9.2679
40.7982 -66.3111 9.2892
40.8993 -66.3094 9.3021
41.0011 -66.308 9.3084
41.1025 -66.3064 9.3184
41.204 -66.305 9.3266
41.3064 -66.3039 9.3273
41.4086 -66.3027 9.3305
41.5094 -66.3008 9.3452
41.6091 -66.2985 9.3695
41.7088 -66.2961 9.3942
41.8091 -66.2941 9.4136
41.9094 -66.292 9.4329
42.009 -66.2896 9.4577
42.1088 -66.2873 9.4803
42.2101 -66.2858 9.4908
42.3122 -66.2846 9.4935
42.414 -66.2832 9.4995
42.5146 -66.2813 9.5153
42.614 -66.2789 9.5412
42.7136 -66.2766 9.5658
42.8153 -66.2752 9.5719
42.9195 -66.2749 9.5574
43.0248 -66.2752 9.5335
43.1295 -66.2752 9.5144
43.2324 -66.2744 9.5112
43.3347 -66.2733 9.5121
43.4404 -66.2737 9.4857
43.5483 -66.2751 9.4407
43.6546 -66.2757 9.4098
43.7594 -66.2757 9.3909
43.8649 -66.276 9.3668
43.9707 -66.2764 9.3409
44.0754 -66.2763 9.3231
44.1789 -66.2757 9.3156
44.282 -66.2749 9.3122
44.3851 -66.2741 9.3079
44.4885 -66.2734 9.3012
44.5924 -66.2729 9.2914
44.6961 -66.2724 9.2821
44.7987 -66.2714 9.2824
44.9004 -66.2699 9.2902
45.0023 -66.2686 9.2956
45.1046 -66.2674 9.2985
45.2073 -66.2664 9.298
45.3112 -66.2659 9.2884
45.4152 -66.2655 9.2778
45.5174 -66.2643 9.2813
45.6175 -66.2622 9.3012
45.7165 -66.2597 9.3292
45.8158 -66.2572 9.3555
45.9158 -66.2551 9.3757
46.0158 -66.253 9.3959
46.115 -66.2506 9.4221
46.2145 -66.2483 9.446
46.3152 -66.2465 9.4603
46.4162 -66.2448 9.4726
46.5175 -66.2433 9.4827
46.6202 -66.2423 9.4821
46.724 -66.2417 9.4735
46.8282 -66.2414 9.4616
46.9309 -66.2404 9.461
47.0301 -66.238 9.4864
47.1267 -66.2346 9.5313
47.2247 -66.2317 9.5662
47.3281 -66.231 9.5596
47.437 -66.2325 9.514
47.5453 -66.2337 9.4721
47.6488 -66.233 9.4662
47.7479 -66.2306 9.4924
47.8456 -66.2276 9.5283
47.9451 -66.2254 9.5514
48.0488 -66.2248 9.5434
48.1575 -66.2262 9.4998
48.2679 -66.2281 9.4443
48.3773 -66.2297 9.3961
48.486 -66.231 9.3537
48.5942 -66.2321 9.3146
48.7009 -66.2326 9.2865
48.8052 -66.2322 9.2761
48.9083 -66.2313 9.274
49.0123 -66.2307 9.2653
49.1181 -66.2308 9.2445
49.2252 -66.2315 9.2143
49.3327 -66.2322 9.1812
49.4389 -66.2325 9.1582
49.5417 -66.2314 9.1586
49.6407 -66.229 9.1855
49.7371 -66.2256 9.2301
49.835 -66.2227 9.2642
49.9382 -66.2219 9.2614
50.0438 -66.2219 9.2426
50.1478 -66.2213 9.2346
50.25 -66.2201 9.239
50.3531 -66.2192 9.2375
50.4599 -66.2196 9.2108
50.567 -66.2201 9.1824
50.6691 -66.2188 9.1879
50.7679 -66.2163 9.2156
50.8683 -66.2145 9.2318
50.9716 -66.2136 9.2294
51.0748 -66.2127 9.2273
51.1769 -66.2114 9.2329
51.2795 -66.2103 9.2344
51.3831 -66.2096 9.2301
51.4862 -66.2086 9.2286
51.5897 -66.2078 9.2249
51.6947 -66.2076 9.2116
51.7997 -66.2073 9.1979
51.9021 -66.2061 9.201
52.0018 -66.204 9.2222
52.1004 -66.2015 9.2506
52.1992 -66.199 9.2776
52.2988 -66.1969 9.2986
52.3993 -66.1951 9.3147
52.4996 -66.1932 9.3312
52.6001 -66.1913 9.3471
52.7022 -66.1901 9.3521
52.806 -66.1894 9.3467
52.9092 -66.1885 9.3447
53.0116 -66.1873 9.3483
53.1143 -66.1862 9.3495
53.2185 -66.1857 9.3417
53.3234 -66.1853 9.3292
53.4283 -66.185 9.3172
53.533 -66.1846 9.3059
53.6373 -66.1841 9.2976
53.7421 -66.1837 9.2867
53.8485 -66.1838 9.2653
53.9558 -66.1843 9.2385
54.0624 -66.1845 9.216
54.1672 -66.1841 9.2054
54.2703 -66.1831 9.205
54.3741 -66.1824 9.2001
54.4797 -66.1822 9.1844
54.5851 -66.182 9.1703
54.688 -66.181 9.1712
54.7887 -66.1792 9.1856
54.8909 -66.1779 9.1914
55.0003 -66.179 9.1529
55.0909 -66.174 9.2283
28.8632 -66.5655 8.7802
28.9591 -66.5589 8.8802
29.0581 -66.5549 8.932
29.1569 -66.5509 8.9857
29.2556 -66.5467 9.0412
29.355 -66.5433 9.084
29.4548 -66.5402 9.1213
29.5545 -66.537 9.159
29.6535 -66.5333 9.2066
29.7524 -66.5295 9.2557
29.8518 -66.5261 9.2975
29.9511 -66.5227 9.3398
30.0504 -66.5194 9.3806
30.1507 -66.5168 9.4078
30.252 -66.5151 9.4203
30.3534 -66.5135 9.4294
30.4544 -66.5115 9.4458
30.5551 -66.5093 9.4663
30.6563 -66.5075 9.4787
30.7584 -66.5065 9.4787
30.8609 -66.5057 9.4733
30.9631 -66.5047 9.4717
31.0647 -66.5032 9.4789
31.1659 -66.5015 9.491
31.2676 -66.5 9.4978
31.3704 -66.4995 9.4878
31.4751 -66.5003 9.4531
31.5805 -66.5017 9.408
31.6854 -66.5027 9.3712
31.7899 -66.5033 9.3408
31.894 -66.5036 9.3153
31.9972 -66.5033 9.3012
32.0993 -66.5021 9.3032
32.2003 -66.5002 9.3184
32.3011 -66.4981 9.3368
32.4032 -66.4969 9.3389
32.5075 -66.4974 9.3112
32.6128 -66.4985 9.2717
32.7168 -66.4986 9.2499
32.819 -66.4975 9.2502
32.9204 -66.4959 9.261
33.021 -66.4937 9.2816
33.1213 -66.4913 9.3052
33.2229 -66.4898 9.3134
33.3263 -66.4895 9.2989
33.4304 -66.4896 9.277
33.5337 -66.4893 9.2641
33.6358 -66.4882 9.2652
33.7369 -66.4863 9.2799
33.8369 -66.4837 9.3075
33.9361 -66.4807 9.3434
34.0357 -66.4779 9.3757
34.1366 -66.476 9.3909
34.2389 -66.4749 9.3906
34.3411 -66.4738 9.391
34.4424 -66.4722 9.4016
34.543 -66.4701 9.4208
34.6436 -66.4679 9.4402
34.7445 -66.4661 9.4553
34.8454 -66.4641 9.4711
34.9455 -66.4617 9.4956
35.0448 -66.4589 9.5281
35.1443 -66.4561 9.5592
35.2451 -66.4543 9.5744
35.349 -66.4542 9.5557
35.4564 -66.4563 9.4976
35.5642 -66.4587 9.4356
35.6698 -66.4597 9.3983
35.7748 -66.4603 9.3678
35.8811 -66.4616 9.3239
35.9875 -66.463 9.279
36.0925 -66.4636 9.2497
36.1965 -66.4635 9.2317
36.3005 -66.4634 9.214
36.4054 -66.4638 9.1871
36.5111 -66.4648 9.1508
36.6171 -66.4658 9.1125
36.7219 -66.4662 9.0867
36.8233 -66.4645 9.0977
36.9206 -66.4605 9.1518
37.0166 -66.4558 9.2193
37.1146 -66.4522 9.2659
37.2159 -66.4505 9.277
37.3187 -66.4497 9.2724
37.4217 -66.449 9.2662
37.524 -66.4479 9.2663
37.6249 -66.446 9.2818
37.7257 -66.4441 9.2976
37.8275 -66.4427 9.3043
37.9292 -66.4413 9.3108
38.0302 -66.4395 9.3245
38.1299 -66.437 9.3515
38.2281 -66.4337 9.3936
38.3264 -66.4304 9.4334
38.4263 -66.428 9.4583
38.5267 -66.4259 9.4775
38.6265 -66.4235 9.5024
38.7256 -66.4208 9.5339
38.8252 -66.4183 9.5607
38.9266 -66.4167 9.5698
39.0294 -66.4159 9.565
39.1323 -66.4153 9.5585
39.2354 -66.4146 9.5519
39.3396 -66.4145 9.5339
39.4462 -66.4157 9.4931
39.554 -66.4175 9.441
39.6609 -66.4188 9.3984
39.7666 -66.4195 9.3671
39.8722 -66.42 9.3377
39.9774 -66.4204 9.3111
40.0814 -66.4202 9.297
40.1838 -66.4191 9.2973
40.2859 -66.4179 9.3008
40.389 -66.4172 9.295
40.4933 -66.4171 9.2781
40.5975 -66.4169 9.2625
40.6996 -66.4157 9.2654
40.8002 -66.4137 9.2831
40.9008 -66.4117 9.3005
41.0015 -66.4098 9.316
41.1026 -66.4081 9.3291
41.2051 -66.407 9.329
41.3085 -66.4065 9.3204
41.4105 -66.4052 9.3251
41.5106 -66.403 9.3461
41.6103 -66.4006 9.3709
41.7104 -66.3985 9.3915
41.811 -66.3966 9.4078
41.9112 -66.3944 9.4278
42.0108 -66.392 9.453
42.1111 -66.39 9.4719
42.2126 -66.3885 9.4805
42.3142 -66.3871 9.4876
42.4155 -66.3855 9.4976
42.5165 -66.3838 9.5101
42.617 -66.3818 9.5272
42.7179 -66.3801 9.5402
42.8206 -66.3792 9.5379
42.9246 -66.3789 9.5249
43.0293 -66.3789 9.5058
43.1341 -66.3789 9.4867
43.2376 -66.3783 9.4784
43.3404 -66.3775 9.4754
43.4459 -66.3778 9.4508
43.5531 -66.3789 9.4117
43.6591 -66.3794 9.3831
43.7647 -66.3797 9.3584
43.871 -66.3804 9.3279
43.9764 -66.3806 9.3048
44.0794 -66.3798 9.3013
44.1807 -66.3782 9.3121
44.282 -66.3766 9.3225
44.3843 -66.3755 9.3243
44.4878 -66.3748 9.3173
44.5919 -66.3745 9.3053
44.6956 -66.3739 9.2965
44.798 -66.3728 9.2983
44.8997 -66.3714 9.3056
45.0019 -66.3701 9.3093
45.1042 -66.369 9.3121
45.2062 -66.3677 9.3172
45.3085 -66.3665 9.3194
45.4115 -66.3657 9.3171
45.5139 -66.3646 9.3187
45.615 -66.3629 9.3307
45.7148 -66.3607 9.3523
45.8142 -66.3583 9.3775
45.9138 -66.356 9.4008
46.0131 -66.3536 9.4268
46.1113 -66.3508 9.4601
46.2103 -66.3482 9.4881
46.3112 -66.3465 9.501
46.4126 -66.345 9.5097
46.514 -66.3435 9.5192
46.6173 -66.3428 9.5141
46.7237 -66.3433 9.4856
46.8307 -66.3441 9.4525
46.934 -66.3434 9.4474
47.0318 -66.3404 9.4835
47.1276 -66.3366 9.5344
47.2254 -66.3337 9.5699
47.3286 -66.3329 9.566
47.4371 -66.3342 9.5225
47.5456 -66.3355 9.4797
47.6495 -66.3351 9.4702
47.7485 -66.3326 9.4971
47.8457 -66.3294 9.537
47.9452 -66.3272 9.5598
48.0498 -66.3269 9.546
48.1592 -66.3286 9.4971
48.2703 -66.3308 9.4366
48.3802 -66.3326 9.3846
48.4886 -66.3338 9.344
48.5963 -66.3347 9.3091
48.7028 -66.3352 9.2826
48.8071 -66.3348 9.2716
48.91 -66.3338 9.2713
49.0136 -66.3331 9.2654
49.119 -66.3331 9.2469
49.2257 -66.3335 9.2199
49.3324 -66.334 9.1925
49.4377 -66.334 9.1752
49.5403 -66.3328 9.1771
49.64 -66.3307 9.1991
49.7381 -66.3279 9.2322
49.8377 -66.3257 9.2542
49.9415 -66.325 9.248
50.0467 -66.3249 9.2319
50.1502 -66.3241 9.2275
50.2519 -66.3227 9.2349
50.3545 -66.3216 9.2367
50.4599 -66.3215 9.2201
50.5653 -66.3214 9.2026
50.6667 -66.3199 9.2125
50.7651 -66.3173 9.2432
50.8647 -66.3151 9.2651
50.9677 -66.3141 9.2639
51.072 -66.3136 9.2547
51.1755 -66.3129 9.2505
51.2784 -66.3119 9.2504
51.3815 -66.311 9.2491
51.485 -66.3102 9.2452
51.589 -66.3095 9.2384
51.6937 -66.3092 9.2264
51.7981 -66.3087 9.217
51.9001 -66.3074 9.2229
51.9999 -66.3053 9.2433
52.0989 -66.3029 9.2691
52.198 -66.3006 9.2936
52.298 -66.2986 9.3123
52.3988 -66.2969 9.3259
52.4994 -66.2951 9.3409
52.6001 -66.2933 9.3555
52.703 -66.2923 9.3553
52.8075 -66.2918 9.3455
52.9109 -66.291 9.3423
53.0135 -66.2899 9.3441
53.1169 -66.2891 9.3411
53.222 -66.2888 9.3279
53.3277 -66.2888 9.3105
53.4325 -66.2884 9.2985
53.5363 -66.2877 9.2936
53.6397 -66.2869 9.2911
53.7445 -66.2865 9.2794
53.8517 -66.2869 9.2532
53.9597 -66.2876 9.2225
54.066 -66.2877 9.2019
54.1696 -66.2869 9.1988
54.2715 -66.2855 9.2056
54.3749 -66.2847 9.2036
54.4805 -66.2845 9.1879
54.5859 -66.2843 9.1736
54.6888 -66.2833 9.1747
54.7895 -66.2815 9.1888
54.8926 -66.2806 9.1886
54.9972 -66.2801 9.1795
55.0923 -66.2765 9.2276
28.8541 -66.6587 8.9432
28.9528 -66.6545 9.0001
29.0525 -66.6512 9.0395
29.1521 -66.6479 9.0801
29.2519 -66.6447 9.1179
29.3521 -66.6419 9.1482
29.4528 -66.6395 9.1715
29.5535 -66.6372 9.1937
29.6536 -66.6344 9.2246
29.7531 -66.6312 9.2641
29.8524 -66.6277 9.3069
29.9516 -66.6242 9.3504
30.0511 -66.621 9.389
30.1516 -66.6186 9.4134
30.253 -66.617 9.4232
30.3547 -66.6155 9.4291
30.4559 -66.6137 9.443
30.5566 -66.6116 9.4622
30.658 -66.6099 9.4724
30.7604 -66.609 9.4687
30.8631 -66.6084 9.4602
30.9653 -66.6074 9.4594
31.0665 -66.6057 9.4713
31.1673 -66.6036 9.4897
31.2684 -66.6018 9.5029
31.371 -66.6011 9.4965
31.4757 -66.6019 9.461
31.5815 -66.6036 9.4124
31.6864 -66.6045 9.3754
31.7904 -66.6049 9.3501
31.8944 -66.6051 9.326
31.9982 -66.6052 9.3057
32.1008 -66.6044 9.3002
32.2022 -66.6028 9.3103
32.3034 -66.601 9.3236
32.4057 -66.6 9.3221
32.5101 -66.6004 9.2949
32.615 -66.6013 9.2595
32.7185 -66.6011 9.2442
32.8205 -66.5998 9.2476
32.922 -66.5982 9.2571
33.0231 -66.5964 9.2714
33.1241 -66.5945 9.2865
33.226 -66.5931 9.2913
33.3288 -66.5925 9.2834
33.4322 -66.5922 9.27
33.535 -66.5915 9.263
33.6368 -66.5901 9.2687
33.7378 -66.5882 9.2848
33.8381 -66.5858 9.3084
33.9378 -66.5831 9.3388
34.0375 -66.5803 9.3695
34.138 -66.5781 9.3897
34.2396 -66.5766 9.3977
34.3414 -66.5753 9.4025
34.4427 -66.5737 9.4128
34.5436 -66.5717 9.4293
34.6443 -66.5697 9.4467
34.7452 -66.5677 9.4626
34.8457 -66.5656 9.4815
34.9455 -66.5631 9.5091
35.0449 -66.5602 9.5422
35.1449 -66.5578 9.567
35.2468 -66.5565 9.57
35.3512 -66.5568 9.5455
35.4582 -66.5588 9.4909
35.5664 -66.5614 9.4248
35.6734 -66.5632 9.3722
35.7791 -66.5642 9.3345
35.8842 -66.5649 9.3033
35.9886 -66.5651 9.2812
36.0924 -66.5649 9.2642
36.1966 -66.565 9.2449
36.3014 -66.5654 9.2183
36.4069 -66.5662 9.1838
36.5129 -66.5673 9.1453
36.619 -66.5684 9.1062
36.7241 -66.5689 9.0771
36.8259 -66.5675 9.0838
36.9235 -66.5637 9.1349
37.0193 -66.5588 9.2042
37.1165 -66.5547 9.2587
37.2173 -66.5528 9.2757
37.3205 -66.5522 9.2664
37.4243 -66.552 9.252
37.5268 -66.551 9.2506
37.6274 -66.5489 9.2698
37.7273 -66.5465 9.2943
37.8284 -66.5447 9.3082
37.93 -66.5432 9.3154
38.0313 -66.5416 9.3262
38.1311 -66.5391 9.352
38.2291 -66.5356 9.3966
38.3271 -66.5322 9.4397
38.427 -66.5298 9.4643
38.5276 -66.5279 9.4811
38.6276 -66.5256 9.5037
38.7271 -66.523 9.5321
38.8271 -66.5207 9.5544
38.9287 -66.5193 9.5611
39.0313 -66.5184 9.5583
39.1338 -66.5175 9.5566
39.2363 -66.5165 9.5557
39.3401 -66.5163 9.5408
39.4468 -66.5175 9.4997
39.5547 -66.5194 9.4462
39.662 -66.5209 9.4005
39.7679 -66.5217 9.367
39.873 -66.522 9.3419
39.9775 -66.522 9.3228
40.0812 -66.5216 9.3107
40.1842 -66.5209 9.3058
40.2872 -66.5201 9.301
40.3908 -66.5196 9.2906
40.4944 -66.5192 9.2801
40.5973 -66.5184 9.2757
40.6997 -66.5173 9.2767
40.8013 -66.5158 9.2845
40.9022 -66.514 9.2991
41.0027 -66.512 9.3173
41.1038 -66.5102 9.33
41.2067 -66.5095 9.3255
41.3101 -66.5089 9.3174
41.4113 -66.5072 9.3293
41.5109 -66.5048 9.3547
41.6109 -66.5025 9.377
41.7114 -66.5005 9.3941
41.8119 -66.4985 9.4116
41.9117 -66.4962 9.4348
42.0113 -66.4939 9.4595
42.112 -66.492 9.475
42.2137 -66.4906 9.4817
42.3153 -66.4891 9.4893
42.4167 -66.4876 9.4985
42.5183 -66.4862 9.5055
42.6203 -66.485 9.5094
42.7233 -66.4842 9.5054
42.8272 -66.4838 9.4928
42.931 -66.4834 9.4817
43.0343 -66.4827 9.475
43.1379 -66.4823 9.4652
43.2417 -66.4818 9.4551
43.3456 -66.4814 9.4428
43.4515 -66.482 9.4148
43.5582 -66.4828 9.3801
43.6639 -66.4832 9.3541
43.7699 -66.4837 9.3264
43.8764 -66.4845 9.2941
43.9813 -66.4845 9.2747
44.0831 -66.4831 9.2813
44.183 -66.4809 9.3034
44.283 -66.4787 9.325
44.3842 -66.4771 9.3359
44.4872 -66.4762 9.3328
44.5913 -66.4759 9.321
44.6949 -66.4753 9.3129
44.7973 -66.4742 9.3144
44.8992 -66.4729 9.3199
45.0013 -66.4716 9.3241
45.103 -66.4702 9.3314
45.2041 -66.4685 9.3435
45.3055 -66.467 9.3536
45.4076 -66.4658 9.357
45.5101 -66.4647 9.358
45.6122 -66.4634 9.3621
45.7134 -66.4618 9.3736
45.8131 -66.4596 9.3958
45.9118 -66.4569 9.4261
46.0099 -66.454 9.461
46.108 -66.4511 9.4957
46.2075 -66.4488 9.5192
46.3091 -66.4474 9.5264
46.4112 -66.4461 9.5305
46.5124 -66.4446 9.5408
46.6149 -66.4435 9.5415
46.7214 -66.4441 9.5123
46.8289 -66.4451 9.4755
46.9317 -66.4442 9.4743
47.0292 -66.4411 9.5125
47.1264 -66.4378 9.5532
47.2268 -66.4359 9.5698
47.3308 -66.4355 9.559
47.4378 -66.4362 9.5268
47.5451 -66.4371 9.4929
47.6491 -66.4366 9.4827
47.7491 -66.4346 9.5024
47.8475 -66.4319 9.5332
47.9482 -66.4301 9.5473
48.0531 -66.4299 9.5315
48.1619 -66.4314 9.4866
48.273 -66.4337 9.4265
48.3831 -66.4356 9.3734
48.4912 -66.4367 9.3347
48.5984 -66.4374 9.3031
48.705 -66.4379 9.2759
48.8101 -66.4377 9.26
48.9128 -66.4367 9.2603
49.015 -66.4355 9.2643
49.1193 -66.4351 9.2539
49.2254 -66.4353 9.2313
49.3315 -66.4356 9.2081
49.4365 -66.4354 9.1931
49.5397 -66.4345 9.1905
49.641 -66.4329 9.2011
49.7413 -66.431 9.2187
49.8427 -66.4294 9.2287
49.946 -66.4286 9.2255
50.0495 -66.4278 9.2214
50.1517 -66.4266 9.2258
50.2535 -66.4252 9.2334
50.3564 -66.4242 9.2332
50.4606 -66.4237 9.224
50.564 -66.4229 9.2207
50.6646 -66.4211 9.2357
50.7636 -66.4186 9.262
50.8635 -66.4166 9.2817
50.9662 -66.4155 9.2831
51.0709 -66.4152 9.2709
51.1757 -66.4149 9.2583
51.2795 -66.4142 9.2521
51.3826 -66.4133 9.2507
51.4856 -66.4123 9.2501
51.5889 -66.4115 9.2473
51.6928 -66.4108 9.2409
51.7961 -66.41 9.2382
51.8977 -66.4085 9.247
51.9979 -66.4065 9.2648
52.0974 -66.4044 9.2869
52.1967 -66.4021 9.3107
52.2966 -66.4 9.3299
52.398 -66.3985 9.34
52.4999 -66.3971 9.3465
52.6019 -66.3959 9.3518
52.705 -66.3949 9.3511
52.8085 -66.3941 9.3474
52.9115 -66.3932 9.3465
53.0151 -66.3924 9.3426
53.1198 -66.392 9.3315
53.2253 -66.3919 9.315
53.3307 -66.3918 9.2998
53.4344 -66.3911 9.2949
53.5369 -66.3899 9.298
53.6401 -66.389 9.2969
53.7455 -66.3888 9.2815
53.8533 -66.3895 9.2515
53.9615 -66.3902 9.2192
54.0677 -66.3903 9.1995
54.1707 -66.3893 9.1997
54.2721 -66.3878 9.2103
54.3748 -66.3867 9.2122
54.4801 -66.3865 9.1984
54.5858 -66.3864 9.1819
54.6895 -66.3856 9.1781
54.7917 -66.3843 9.1836
54.8952 -66.3835 9.1806
54.9966 -66.3819 9.1912
28.8518 -66.7578 9
28.9498 -66.753 9.0664
29.0493 -66.7495 9.1085
29.1491 -66.7463 9.1464
29.2493 -66.7435 9.1774
29.3498 -66.7411 9.2021
29.4509 -66.739 9.2192
29.5524 -66.7374 9.2297
29.6534 -66.7354 9.2461
29.7534 -66.7324 9.2791
29.8527 -66.729 9.3221
29.952 -66.7256 9.3636
30.0519 -66.7227 9.3959
30.1526 -66.7205 9.4163
30.2542 -66.7189 9.4249
30.356 -66.7176 9.4289
30.4574 -66.716 9.4392
30.5584 -66.714 9.4546
30.66 -66.7125 9.4624
30.7624 -66.7117 9.4576
30.8651 -66.711 9.45
30.967 -66.7098 9.4526
31.0681 -66.7079 9.467
31.1688 -66.7058 9.4862
31.2699 -66.704 9.5
31.3724 -66.7031 9.4956
31.4765 -66.7036 9.4673
31.5817 -66.7048 9.4267
31.6864 -66.7057 9.3922
31.7904 -66.706 9.3677
31.8944 -66.7062 9.3434
31.9987 -66.7067 9.3158
32.1021 -66.7066 9.2995
32.204 -66.7052 9.3037
32.3054 -66.7036 9.3139
32.408 -66.7028 9.3092
32.5124 -66.7033 9.2804
32.6172 -66.704 9.2487
32.7204 -66.7036 9.2364
32.8223 -66.7023 9.2408
32.9236 -66.7006 9.2524
33.025 -66.699 9.2633
33.1271 -66.6978 9.2651
33.2296 -66.6969 9.2618
33.332 -66.6959 9.26
33.4345 -66.695 9.2577
33.5366 -66.6938 9.2592
33.6378 -66.692 9.2728
33.7382 -66.6898 9.2945
33.8387 -66.6875 9.3165
33.9391 -66.6852 9.3384
34.0395 -66.6829 9.3603
34.1402 -66.6808 9.3786
34.2413 -66.679 9.3925
34.3424 -66.6772 9.4059
34.4433 -66.6753 9.4218
34.5441 -66.6733 9.4386
34.6449 -66.6713 9.4547
34.7457 -66.6694 9.4708
34.8463 -66.6673 9.4897
34.9463 -66.6648 9.5151
35.0461 -66.6622 9.5427
35.1472 -66.6604 9.5555
35.2504 -66.66 9.5439
35.3552 -66.6606 9.5149
35.4614 -66.662 9.4697
35.5688 -66.6641 9.4127
35.676 -66.6662 9.3573
35.782 -66.6674 9.3161
35.8863 -66.6675 9.2949
35.9895 -66.667 9.285
36.0932 -66.6668 9.2699
36.1982 -66.6674 9.2411
36.304 -66.6684 9.204
36.4096 -66.6693 9.1688
36.515 -66.67 9.1362
36.6205 -66.6708 9.104
36.7249 -66.6709 9.0821
36.8265 -66.6694 9.0908
36.9249 -66.666 9.1339
37.0217 -66.6616 9.1933
37.1195 -66.6579 9.2409
37.2205 -66.6561 9.2553
37.3239 -66.6556 9.2445
37.4275 -66.6552 9.2325
37.5295 -66.654 9.2367
37.6295 -66.6516 9.2607
37.729 -66.6489 9.2908
37.8293 -66.6467 9.3121
37.9306 -66.6451 9.3222
38.0323 -66.6436 9.3296
38.1327 -66.6415 9.349
38.231 -66.6381 9.3902
38.3287 -66.6346 9.4361
38.4281 -66.6319 9.4653
38.5285 -66.6298 9.4851
38.6285 -66.6275 9.5079
38.7282 -66.625 9.5331
38.8287 -66.623 9.5515
38.9305 -66.6217 9.5563
39.0331 -66.6208 9.5535
39.1355 -66.6198 9.5529
39.2379 -66.6188 9.5525
39.3416 -66.6185 9.5391
39.4477 -66.6194 9.5027
39.5554 -66.6212 9.4522
39.6628 -66.6228 9.4049
39.7688 -66.6237 9.3703
39.8736 -66.6238 9.3484
39.9777 -66.6237 9.3326
40.0816 -66.6234 9.3194
40.1852 -66.623 9.308
40.2893 -66.6228 9.2928
40.3937 -66.6227 9.275
40.4968 -66.622 9.2699
40.5981 -66.6204 9.2802
40.6996 -66.6188 9.2895
40.8018 -66.6176 9.2924
40.9036 -66.6163 9.2978
41.005 -66.6147 9.3078
41.1068 -66.6133 9.314
41.2096 -66.6125 9.3111
41.3119 -66.6113 9.3128
41.4119 -66.6091 9.3352
41.511 -66.6064 9.3651
41.6111 -66.6042 9.3862
41.7118 -66.6023 9.4017
41.8122 -66.6003 9.4203
41.9118 -66.5979 9.4453
42.0113 -66.5954 9.4712
42.1119 -66.5935 9.4877
42.2135 -66.592 9.4947
42.3153 -66.5907 9.5003
42.4171 -66.5894 9.5057
42.5196 -66.5884 9.5055
42.6229 -66.5877 9.4985
42.7272 -66.5876 9.4831
42.8322 -66.5877 9.4617
42.9361 -66.5874 9.4494
43.0384 -66.5862 9.4516
43.1405 -66.585 9.4549
43.2436 -66.5843 9.45
43.3483 -66.5843 9.4312
43.455 -66.5852 9.3964
43.5618 -66.5861 9.361
43.6676 -66.5866 9.3343
43.7737 -66.5871 9.3058
43.88 -66.5878 9.2747
43.9844 -66.5876 9.2604
44.0855 -66.5859 9.2726
44.1849 -66.5834 9.2991
44.2844 -66.581 9.3242
44.3853 -66.5792 9.3379
44.4881 -66.5783 9.336
44.5919 -66.5779 9.326
44.6952 -66.5771 9.3209
44.7975 -66.576 9.3234
44.8995 -66.5747 9.3281
45.0013 -66.5733 9.3347
45.1023 -66.5716 9.3477
45.2027 -66.5696 9.365
45.3036 -66.5679 9.3781
45.4056 -66.5666 9.3833
45.5081 -66.5655 9.3838
45.6108 -66.5646 9.383
45.7129 -66.5633 9.3875
45.8128 -66.5612 9.4082
45.9105 -66.558 9.4466
46.0075 -66.5546 9.4897
46.1057 -66.5518 9.523
46.2064 -66.55 9.5375
46.3092 -66.549 9.5361
46.4119 -66.5481 9.5347
46.5133 -66.5466 9.5439
46.615 -66.5452 9.5509
46.7195 -66.545 9.5361
46.8249 -66.5451 9.5156
46.9268 -66.5438 9.521
47.0249 -66.541 9.5546
47.1239 -66.5385 9.581
47.2278 -66.538 9.5717
47.334 -66.5385 9.5455
47.4403 -66.539 9.518
47.546 -66.5392 9.4958
47.6492 -66.5384 9.4916
47.7498 -66.5366 9.507
47.8499 -66.5345 9.5254
47.9521 -66.5333 9.5288
48.0572 -66.5333 9.5106
48.1656 -66.5346 9.4699
48.276 -66.5366 9.4145
48.3856 -66.5384 9.3647
48.493 -66.5392 9.3314
48.5995 -66.5397 9.3047
48.7061 -66.5401 9.2777
48.8119 -66.5403 9.2561
48.9155 -66.5396 9.2507
49.0173 -66.5382 9.2578
49.1203 -66.5373 9.2559
49.2256 -66.5373 9.2387
49.3312 -66.5374 9.219
49.4364 -66.5372 9.203
49.5409 -66.5369 9.1916
49.644 -66.536 9.1894
49.7458 -66.5346 9.1972
49.8475 -66.5331 9.2046
49.9498 -66.532 9.2084
50.0517 -66.5306 9.2153
50.1531 -66.529 9.2254
50.2548 -66.5276 9.233
50.3576 -66.5266 9.2338
50.4606 -66.5256 9.2329
50.5626 -66.5243 9.2387
50.6635 -66.5226 9.2517
50.7644 -66.5209 9.265
50.8661 -66.5194 9.2728
50.9691 -66.5185 9.2719
51.0735 -66.518 9.2624
51.1779 -66.5176 9.2521
51.2813 -66.5168 9.2489
51.3836 -66.5156 9.2528
51.4857 -66.5143 9.2581
51.5884 -66.5132 9.259
51.6919 -66.5125 9.2552
51.7948 -66.5115 9.2553
51.8962 -66.5099 9.2657
51.9965 -66.508 9.2822
52.0965 -66.506 9.3014
52.1962 -66.5038 9.3223
52.2966 -66.502 9.3382
52.3985 -66.5006 9.3447
52.5013 -66.4996 9.3454
52.6042 -66.4986 9.3457
52.7065 -66.4974 9.3499
52.8083 -66.496 9.3566
52.9113 -66.495 9.3562
53.0163 -66.4948 9.3433
53.1224 -66.4949 9.3232
53.2281 -66.4949 9.3057
53.3325 -66.4944 9.2967
53.4351 -66.4932 9.2991
53.5371 -66.4919 9.3051
53.6407 -66.4912 9.3011
53.747 -66.4913 9.2801
53.8552 -66.4921 9.2481
53.9629 -66.4927 9.2187
54.0683 -66.4925 9.2042
54.1711 -66.4915 9.2056
54.2727 -66.49 9.2144
54.375 -66.4888 9.219
54.4789 -66.4881 9.2135
54.584 -66.4878 9.2014
54.6884 -66.4873 9.1928
54.792 -66.4865 9.1898
54.8955 -66.4856 9.187
54.9988 -66.4847 9.186
55.1006 -66.4833 9.1936
28.6564 -66.8692 8.8745
28.7536 -66.8636 8.955
28.8503 -66.8575 9.0432
28.9485 -66.8529 9.1063
29.0473 -66.8488 9.1603
29.1469 -66.8455 9.2002
29.2473 -66.8429 9.2272
29.3481 -66.8406 9.2474
29.4493 -66.8387 9.263
29.5509 -66.8371 9.271
29.6525 -66.8356 9.2788
29.7531 -66.8332 9.3026
29.8527 -66.83 9.3403
29.9525 -66.827 9.375
30.0528 -66.8244 9.4009
30.1536 -66.8223 9.4202
30.255 -66.8206 9.4312
30.3569 -66.8193 9.4346
30.4587 -66.818 9.4385
30.5602 -66.8165 9.4468
30.662 -66.8151 9.4521
30.7644 -66.8143 9.4482
30.8669 -66.8135 9.4429
30.9686 -66.8121 9.4475
31.0697 -66.8102 9.4628
31.1704 -66.8081 9.4813
31.2717 -66.8064 9.4924
31.3742 -66.8056 9.4874
31.4778 -66.8056 9.4679
31.5819 -66.8061 9.4407
31.6862 -66.8066 9.412
31.7903 -66.807 9.3857
31.8946 -66.8076 9.3574
31.9995 -66.8085 9.3221
32.1039 -66.809 9.2931
32.2064 -66.8082 9.2891
32.3079 -66.8066 9.2983
32.4106 -66.8058 9.2925
32.5151 -66.8064 9.2632
32.6197 -66.8071 9.2326
32.7231 -66.8068 9.2178
32.8251 -66.8056 9.221
32.9259 -66.8035 9.2396
33.0268 -66.8015 9.2569
33.1293 -66.8006 9.2534
33.2326 -66.8002 9.2407
33.335 -66.7993 9.2386
33.4369 -66.7979 9.2436
33.5384 -66.7963 9.253
33.639 -66.7941 9.2734
33.739 -66.7916 9.3002
33.8395 -66.7893 9.3222
33.9406 -66.7875 9.3358
34.0419 -66.7858 9.3464
34.1431 -66.784 9.3593
34.244 -66.7821 9.3749
34.3446 -66.7799 9.3946
34.4449 -66.7776 9.4179
34.5454 -66.7754 9.4381
34.6461 -66.7733 9.4557
34.7467 -66.7712 9.4748
34.8472 -66.7691 9.4943
34.9477 -66.7669 9.5138
35.0485 -66.765 9.5297
35.1508 -66.764 9.5292
35.2546 -66.7639 9.511
35.3592 -66.7644 9.4838
35.4647 -66.7654 9.4476
35.5708 -66.7667 9.4047
35.6768 -66.768 9.3631
35.7822 -66.7689 9.3288
35.8865 -66.7691 9.3059
35.9904 -66.769 9.2894
36.0951 -66.7693 9.2634
36.2013 -66.7707 9.2207
36.3079 -66.7722 9.175
36.4133 -66.7729 9.1429
36.5175 -66.773 9.1233
36.6214 -66.7728 9.1071
36.7247 -66.7723 9.0983
36.8263 -66.7707 9.1072
36.9257 -66.7679 9.1392
37.0239 -66.7644 9.1837
37.1231 -66.7615 9.2167
37.2248 -66.76 9.2244
37.3279 -66.7594 9.2169
37.4305 -66.7584 9.2147
37.5315 -66.7566 9.2288
37.6311 -66.754 9.2575
37.73 -66.7509 9.2934
37.8295 -66.7482 9.3227
37.9306 -66.7465 9.3352
38.0329 -66.7454 9.3367
38.1342 -66.7438 9.3469
38.2333 -66.7409 9.3803
38.3311 -66.7373 9.425
38.4298 -66.7342 9.4616
38.5293 -66.7316 9.4896
38.6291 -66.7292 9.515
38.729 -66.7269 9.538
38.8297 -66.7249 9.554
38.9315 -66.7236 9.5593
39.0341 -66.7227 9.5568
39.1368 -66.7219 9.5523
39.2399 -66.7213 9.5451
39.344 -66.7212 9.5287
39.4496 -66.7219 9.4975
39.5567 -66.7234 9.4517
39.6641 -66.725 9.4044
39.77 -66.7258 9.3713
39.8744 -66.7258 9.3533
39.9784 -66.7256 9.3382
40.0829 -66.7256 9.3189
40.1877 -66.7258 9.2968
40.2928 -66.7261 9.2724
40.3976 -66.7263 9.2515
40.5001 -66.7253 9.2508
40.6002 -66.723 9.2732
40.7002 -66.7207 9.2954
40.8019 -66.7193 9.3024
40.9045 -66.7183 9.3015
41.0071 -66.7173 9.3008
41.1097 -66.7164 9.2994
41.2123 -66.7154 9.2985
41.3135 -66.7137 9.31
41.4127 -66.7111 9.3395
41.5117 -66.7083 9.3707
41.6117 -66.7061 9.3925
41.7122 -66.7041 9.41
41.8124 -66.7019 9.4302
41.9119 -66.6994 9.456
42.0112 -66.6969 9.4837
42.1114 -66.6948 9.503
42.213 -66.6933 9.5105
42.315 -66.6921 9.514
42.4174 -66.691 9.5148
42.5206 -66.6904 9.5079
42.6246 -66.6901 9.4948
42.7293 -66.6901 9.4763
42.8344 -66.6904 9.4537
42.9385 -66.6901 9.4403
43.0406 -66.6889 9.4438
43.1419 -66.6873 9.4534
43.2444 -66.6863 9.4539
43.3495 -66.6864 9.4321
43.4568 -66.6876 9.3924
43.5639 -66.6887 9.3547
43.6698 -66.6892 9.3271
43.7756 -66.6897 9.3006
43.8813 -66.6901 9.2748
43.985 -66.6896 9.266
44.0858 -66.6877 9.281
44.1852 -66.6853 9.3065
44.2851 -66.6831 9.3283
44.3868 -66.6816 9.3358
44.4904 -66.6811 9.3278
44.5944 -66.6806 9.317
44.6971 -66.6797 9.3156
44.7988 -66.6782 9.3236
