58.1237 -67.6286 6.737
58.2296 -67.6282 6.7271
58.3336 -67.6272 6.7281
58.4346 -67.6252 6.746
58.535 -67.6229 6.7679
58.6366 -67.6211 6.7824
58.7407 -67.6201 6.7828
58.8477 -67.6201 6.767
58.955 -67.6202 6.7497
59.06 -67.6195 6.7453
59.1623 -67.6179 6.7559
59.2632 -67.6158 6.7747
59.3648 -67.614 6.7889
59.4693 -67.6132 6.7876
59.5765 -67.6132 6.7713
59.6845 -67.6134 6.7506
59.7916 -67.6134 6.7347
59.8984 -67.6133 6.7208
60.0035 -67.6126 6.7164
33.5864 -67.9979 6.2881
33.6838 -67.9923 6.3627
33.782 -67.9875 6.4262
33.8779 -67.9809 6.5179
33.9735 -67.9742 6.6117
34.0696 -67.9679 6.6989
34.1663 -67.9622 6.7777
34.2635 -67.9567 6.851
34.3609 -67.9515 6.9208
34.4591 -67.9469 6.9797
34.5591 -67.9436 7.0171
34.6602 -67.9411 7.0414
34.7611 -67.9384 7.0683
34.8629 -67.9364 7.0845
34.9675 -67.9363 7.0674
35.0739 -67.9375 7.0308
35.1793 -67.938 7.005
35.2831 -67.9373 6.9985
35.3864 -67.9363 6.9977
35.4903 -67.9357 6.9901
35.595 -67.9356 6.9741
35.6988 -67.935 6.9674
35.7997 -67.9324 6.9928
35.8987 -67.9285 7.0403
35.9981 -67.9249 7.0827
36.1006 -67.9234 7.0901
36.2061 -67.9239 7.0649
36.3111 -67.924 7.0455
36.413 -67.9221 7.0597
36.5136 -67.9193 7.0889
36.616 -67.9177 7.0978
36.7225 -67.9188 7.0627
36.8335 -67.9227 6.9795
36.9463 -67.9277 6.8781
37.0581 -67.9321 6.7882
37.1693 -67.936 6.7055
37.2814 -67.9404 6.6138
37.3953 -67.946 6.504
37.5108 -67.9524 6.3787
37.625 -67.958 6.268
37.7362 -67.9617 6.1895
37.8466 -67.9648 6.1198
37.9569 -67.9678 6.0514
38.0657 -67.9699 5.9997
38.1732 -67.9712 5.9603
38.2809 -67.9725 5.9208
38.3881 -67.9736 5.8857
38.4941 -67.9739 5.8632
38.5991 -67.9736 5.8503
38.7035 -67.9729 5.8446
38.8074 -67.9719 5.8432
38.9118 -67.9713 5.8369
39.0166 -67.9708 5.8273
39.1205 -67.9698 5.826
39.2233 -67.9682 5.8357
39.3258 -67.9664 5.8482
39.4289 -67.965 5.8552
39.5325 -67.9638 5.8571
39.6357 -67.9624 5.8633
39.7375 -67.9603 5.8821
39.8382 -67.9575 5.9116
39.9389 -67.9547 5.9414
40.0403 -67.9523 5.9639
40.1421 -67.9501 5.9821
40.2439 -67.948 6.0012
40.3458 -67.9459 6.0188
40.4478 -67.9439 6.0344
40.5493 -67.9416 6.0564
40.6493 -67.9385 6.0904
40.7494 -67.9355 6.1245
40.8511 -67.9333 6.1428
40.9544 -67.932 6.1472
41.0582 -67.9311 6.1464
41.163 -67.9306 6.1365
41.2696 -67.9311 6.1114
41.3772 -67.9322 6.0762
41.4847 -67.9331 6.043
41.5908 -67.9333 6.0219
41.6957 -67.9329 6.0126
41.8003 -67.9323 6.0059
41.906 -67.9322 5.9888
42.0148 -67.9338 5.9447
42.1256 -67.9364 5.8841
42.2356 -67.9386 5.8305
42.3442 -67.9401 5.7887
42.4515 -67.9408 5.7599
42.5557 -67.9399 5.757
42.6566 -67.9373 5.7839
42.7556 -67.9337 5.8267
42.854 -67.9299 5.874
42.9533 -67.9265 5.9135
43.0546 -67.9242 5.9354
43.157 -67.9224 5.9479
43.2587 -67.9202 5.9669
43.3589 -67.9174 5.9977
43.4588 -67.9144 6.0311
43.5603 -67.9122 6.0509
43.6639 -67.911 6.0534
43.769 -67.9106 6.0434
43.8752 -67.9108 6.0236
43.9823 -67.9113 5.9977
44.0895 -67.9119 5.9702
44.1967 -67.9125 5.9431
44.3034 -67.9128 5.9208
44.409 -67.9126 5.9072
44.514 -67.9121 5.8983
44.6194 -67.9118 5.8865
44.7251 -67.9116 5.8725
44.8297 -67.9109 5.8675
44.9324 -67.9093 5.8776
45.0341 -67.9072 5.8962
45.1352 -67.9048 5.9196
45.2359 -67.9022 5.945
45.338 -67.9003 5.9605
45.442 -67.8993 5.9596
45.5471 -67.8988 5.9511
45.6517 -67.8981 5.9463
45.7552 -67.8969 5.9502
45.8576 -67.8952 5.962
45.9598 -67.8933 5.9766
46.0622 -67.8915 5.9887
46.1658 -67.8904 5.9911
46.2714 -67.8901 5.9791
46.3776 -67.8901 5.9624
46.4818 -67.8892 5.9603
46.5832 -67.887 5.9806
46.6836 -67.8843 6.0083
46.7847 -67.882 6.0301
46.8867 -67.8801 6.0452
46.9892 -67.8785 6.0562
47.0928 -67.8773 6.0594
47.1973 -67.8765 6.0554
47.3013 -67.8755 6.0559
47.404 -67.8739 6.0653
47.5066 -67.8723 6.0759
47.6092 -67.8707 6.0859
47.7119 -67.8691 6.0958
47.8156 -67.868 6.0981
47.9205 -67.8674 6.0915
48.0253 -67.8667 6.0857
48.1288 -67.8655 6.0892
48.2306 -67.8635 6.1057
48.331 -67.8609 6.132
48.4316 -67.8585 6.1568
48.5345 -67.857 6.1644
48.6403 -67.8568 6.1515
48.7468 -67.8568 6.1338
48.8527 -67.8566 6.1208
48.9577 -67.856 6.1137
49.0612 -67.8548 6.1179
49.1627 -67.8527 6.1359
49.2633 -67.8503 6.1604
49.3643 -67.8481 6.1812
49.4671 -67.8465 6.1904
49.5719 -67.8458 6.1848
49.678 -67.8457 6.1705
49.7834 -67.8453 6.1608
49.8876 -67.8443 6.1601
49.9914 -67.8432 6.162
50.0957 -67.8423 6.1602
50.2004 -67.8416 6.1557
50.3054 -67.841 6.1494
50.4107 -67.8405 6.1415
50.5147 -67.8395 6.1418
50.6165 -67.8375 6.1578
50.7174 -67.8353 6.1795
50.8191 -67.8333 6.1953
50.9216 -67.8317 6.2063
51.0242 -67.8301 6.2163
51.1273 -67.8287 6.2231
51.2309 -67.8275 6.2261
51.335 -67.8265 6.2262
51.4398 -67.8259 6.2212
51.5451 -67.8254 6.2131
51.6499 -67.8246 6.2087
51.7536 -67.8235 6.2114
51.8566 -67.822 6.2191
51.9597 -67.8207 6.2257
52.0631 -67.8194 6.2304
52.1656 -67.8178 6.2411
52.2676 -67.816 6.2553
52.3703 -67.8144 6.2642
52.4729 -67.8129 6.2743
52.574 -67.8107 6.2936
52.6749 -67.8085 6.3145
52.777 -67.8067 6.3279
52.8795 -67.8052 6.338
52.9815 -67.8034 6.3517
53.0835 -67.8016 6.3651
53.1863 -67.8001 6.3738
53.2899 -67.7989 6.3771
53.3952 -67.7984 6.3693
53.502 -67.7984 6.3527
53.6075 -67.798 6.3436
53.7108 -67.7967 6.3491
53.813 -67.795 6.3613
53.9153 -67.7933 6.3733
54.0175 -67.7916 6.3854
54.1197 -67.7899 6.3976
54.2223 -67.7884 6.4068
54.3263 -67.7873 6.4082
54.4313 -67.7867 6.4025
54.5356 -67.7858 6.4015
54.6378 -67.7841 6.4138
54.7392 -67.7821 6.431
54.8414 -67.7804 6.4427
54.9442 -67.7789 6.4511
55.0462 -67.7772 6.4645
55.1472 -67.7751 6.4838
55.2477 -67.7728 6.5058
55.3485 -67.7706 6.5264
55.4506 -67.7689 6.5385
55.555 -67.768 6.5372
55.6615 -67.7679 6.5228
55.7685 -67.7679 6.5059
55.8739 -67.7674 6.4983
55.978 -67.7664 6.4987
56.0808 -67.765 6.5072
56.1819 -67.7629 6.5257
56.2825 -67.7607 6.5467
56.3845 -67.7589 6.5596
56.4883 -67.7578 6.5621
56.5926 -67.7569 6.5615
56.6955 -67.7555 6.5689
56.7966 -67.7535 6.5868
56.8975 -67.7514 6.6064
56.9985 -67.7493 6.6249
57.0984 -67.7469 6.6494
57.1971 -67.744 6.6813
57.2966 -67.7415 6.7086
57.3988 -67.7399 6.7196
57.5029 -67.7389 6.7202
57.6062 -67.7376 6.7253
57.7082 -67.7359 6.7377
57.8103 -67.7342 6.7495
57.913 -67.7328 6.7581
58.0165 -67.7316 6.7617
58.1212 -67.7308 6.7584
58.2265 -67.7302 6.7523
58.3306 -67.7293 6.7527
58.4334 -67.7278 6.7605
58.536 -67.7264 6.7695
58.6391 -67.725 6.776
58.7437 -67.7242 6.7735
58.8503 -67.724 6.7602
58.9564 -67.7237 6.7493
59.0603 -67.7227 6.7511
59.162 -67.7209 6.7653
59.2625 -67.7187 6.7861
59.3635 -67.7167 6.8038
59.4667 -67.7154 6.8091
59.5725 -67.715 6.8007
59.6791 -67.7148 6.7877
59.7852 -67.7145 6.7772
59.889 -67.7134 6.7796
59.9938 -67.7126 6.7765
33.589 -68.1022 6.2721
33.6882 -68.098 6.3243
33.7847 -68.0918 6.4089
33.8795 -68.0844 6.5137
33.9747 -68.0774 6.6124
34.0707 -68.071 6.7017
34.1674 -68.0651 6.7809
34.2646 -68.0597 6.8528
34.3624 -68.0547 6.918
34.4611 -68.0504 6.9717
34.5611 -68.0471 7.0096
34.6616 -68.0442 7.0404
34.7621 -68.0412 7.0722
34.8634 -68.0388 7.0941
34.9671 -68.0382 7.0871
35.073 -68.039 7.0566
35.1784 -68.0395 7.0306
35.2823 -68.0389 7.0229
35.3852 -68.0377 7.0256
35.4885 -68.0367 7.0253
35.5928 -68.0363 7.0132
35.697 -68.036 7.0018
35.7986 -68.0339 7.0197
35.8979 -68.0302 7.0637
35.9978 -68.0269 7.0997
36.1009 -68.0258 7.1009
36.2064 -68.0262 7.0766
36.3112 -68.0263 7.0588
36.4136 -68.0247 7.0674
36.5144 -68.0221 7.0938
36.6161 -68.0201 7.1098
36.7223 -68.021 7.0778
36.8342 -68.0254 6.986
36.9476 -68.0309 6.8779
37.0598 -68.0356 6.7834
37.1715 -68.0398 6.6959
37.2849 -68.0451 6.5911
37.4011 -68.0521 6.457
37.5188 -68.06 6.3093
37.6341 -68.0662 6.1879
37.7455 -68.07 6.1071
37.8551 -68.0727 6.0458
37.9638 -68.0748 5.9942
38.071 -68.0759 5.9584
38.1775 -68.0765 5.93
38.2845 -68.0775 5.8974
38.3911 -68.0782 5.8685
38.4961 -68.0779 5.8559
38.5999 -68.0768 5.8559
38.7034 -68.0757 5.8581
38.8074 -68.0748 5.856
38.9121 -68.0742 5.8471
39.0165 -68.0736 5.8409
39.1196 -68.0721 5.8479
39.2216 -68.07 5.8655
39.3232 -68.0677 5.8865
39.4253 -68.0657 5.9033
39.5282 -68.0642 5.9114
39.6314 -68.0628 5.9172
39.7336 -68.0608 5.9322
39.8346 -68.0582 5.9583
39.9355 -68.0555 5.9857
40.037 -68.0532 6.0078
40.1386 -68.0509 6.0281
40.24 -68.0486 6.0502
40.3416 -68.0463 6.0702
40.4436 -68.0443 6.0862
40.545 -68.042 6.1079
40.645 -68.0389 6.143
40.7447 -68.0356 6.1796
40.8466 -68.0336 6.1969
40.9503 -68.0326 6.1965
41.0549 -68.032 6.1882
41.1606 -68.0321 6.1706
41.2676 -68.0328 6.1407
41.3755 -68.0341 6.1033
41.4833 -68.0352 6.0669
41.5901 -68.0358 6.04
41.6955 -68.0357 6.0256
41.8 -68.035 6.0198
41.9048 -68.0345 6.0107
42.0121 -68.0353 5.9799
42.1221 -68.0375 5.9263
42.2322 -68.0398 5.8712
42.3416 -68.0417 5.8231
42.4498 -68.0429 5.7863
42.5552 -68.0426 5.7734
42.6572 -68.0406 5.7898
42.7568 -68.0373 5.8277
42.8554 -68.0335 5.8735
42.955 -68.0303 5.9104
43.0572 -68.0285 5.9242
43.1614 -68.0275 5.9221
43.2642 -68.026 5.9314
43.3642 -68.023 5.9645
43.4634 -68.0196 6.0038
43.5647 -68.0173 6.0252
43.6686 -68.0163 6.0253
43.7738 -68.0159 6.0143
43.8798 -68.0159 5.9968
43.9865 -68.0163 5.9735
44.094 -68.0171 5.9436
44.2018 -68.018 5.9121
44.3083 -68.0182 5.8907
44.4131 -68.0176 5.8845
44.5172 -68.0167 5.8833
44.6222 -68.0162 5.8743
44.728 -68.0161 5.8596
44.8326 -68.0153 5.855
44.9351 -68.0136 5.8665
45.0369 -68.0115 5.8845
45.1387 -68.0095 5.9017
45.2405 -68.0074 5.9192
45.3427 -68.0056 5.9332
45.4462 -68.0043 5.9375
45.5504 -68.0034 5.9358
45.6542 -68.0023 5.9366
45.7573 -68.0009 5.9435
45.8599 -67.9992 5.955
45.962 -67.9973 5.9696
46.0639 -67.9954 5.9855
46.1668 -67.9939 5.9936
46.2719 -67.9933 5.9857
46.3776 -67.9931 5.9724
46.4817 -67.9922 5.9718
46.5835 -67.9902 5.9882
46.6844 -67.9878 6.012
46.7856 -67.9855 6.0333
46.8876 -67.9836 6.0481
46.9907 -67.9822 6.0549
47.0947 -67.9812 6.0547
47.1988 -67.9802 6.0545
47.3018 -67.9788 6.0618
47.4042 -67.977 6.0739
47.5067 -67.9754 6.0845
47.6093 -67.9737 6.0953
47.7116 -67.972 6.108
47.8145 -67.9705 6.1162
47.9184 -67.9695 6.1167
48.0224 -67.9685 6.1163
48.1253 -67.967 6.1246
48.2267 -67.9648 6.1441
48.3271 -67.9623 6.17
48.4283 -67.9601 6.1902
48.532 -67.959 6.1921
48.6381 -67.9589 6.1772
48.7448 -67.959 6.1582
48.851 -67.959 6.1423
48.956 -67.9584 6.1353
49.0588 -67.9568 6.1443
49.1601 -67.9547 6.1633
49.2617 -67.9527 6.1811
49.3642 -67.951 6.1919
49.4677 -67.9498 6.1952
49.572 -67.9489 6.1933
49.6766 -67.9482 6.1897
49.7807 -67.9472 6.1894
49.8841 -67.9459 6.1937
49.9876 -67.9447 6.1976
50.0918 -67.9438 6.1962
50.1971 -67.9433 6.1879
50.3033 -67.9432 6.1732
50.4095 -67.9431 6.1584
50.5139 -67.9422 6.1567
50.6155 -67.9402 6.1736
50.7163 -67.9379 6.1957
50.8184 -67.9361 6.2092
50.9217 -67.9348 6.2147
51.025 -67.9335 6.2202
51.1275 -67.9319 6.2307
51.2297 -67.9301 6.2431
51.3331 -67.9289 6.2476
51.4384 -67.9284 6.2395
51.544 -67.928 6.2299
51.648 -67.927 6.2303
51.7513 -67.9257 6.2356
51.8546 -67.9244 6.2408
51.9579 -67.9231 6.2462
52.0612 -67.9218 6.2517
52.1638 -67.9202 6.2617
52.2656 -67.9183 6.2769
52.3675 -67.9165 6.2913
52.4696 -67.9147 6.3047
52.5714 -67.9128 6.3197
52.6736 -67.9111 6.3319
52.7766 -67.9097 6.3387
52.8796 -67.9083 6.3463
52.9819 -67.9066 6.358
53.0847 -67.9051 6.3664
53.1884 -67.904 6.3689
53.292 -67.9028 6.372
53.3962 -67.9019 6.3714
53.5015 -67.9013 6.3641
53.6063 -67.9006 6.3598
53.7094 -67.8992 6.3668
53.8112 -67.8974 6.3809
53.9133 -67.8957 6.3941
54.0155 -67.894 6.4062
54.1174 -67.8922 6.4198
54.2197 -67.8905 6.4314
54.3233 -67.8893 6.4348
54.428 -67.8886 6.4312
54.5319 -67.8875 6.4327
54.634 -67.8858 6.4453
54.7358 -67.8839 6.4601
54.8388 -67.8826 6.4669
54.9431 -67.8817 6.4659
55.0472 -67.8806 6.4664
55.1496 -67.8791 6.477
55.2499 -67.8767 6.5003
55.3494 -67.874 6.529
55.4504 -67.8719 6.5479
55.5549 -67.8711 6.5458
55.6623 -67.8713 6.5259
55.7702 -67.8717 6.5037
55.8761 -67.8713 6.4934
55.9804 -67.8704 6.4925
56.0839 -67.8692 6.4968
56.1861 -67.8675 6.5084
56.2876 -67.8656 6.5245
56.3897 -67.8639 6.5371
56.4928 -67.8626 6.543
56.596 -67.8612 6.5491
56.6976 -67.8594 6.5643
56.7983 -67.8572 6.5851
56.8992 -67.8551 6.6038
57.0003 -67.853 6.6221
57.1002 -67.8506 6.6473
57.1992 -67.8479 6.6768
57.2998 -67.8457 6.6975
57.4031 -67.8444 6.7029
57.5073 -67.8434 6.7025
57.6099 -67.8419 6.7115
57.7103 -67.8397 6.7334
57.8102 -67.8373 6.7579
57.9116 -67.8354 6.7736
58.0149 -67.8341 6.7786
58.1194 -67.8333 6.7768
58.2243 -67.8326 6.7725
58.329 -67.8318 6.7692
58.4336 -67.831 6.7668
58.5382 -67.8302 6.7648
58.6424 -67.8292 6.7644
58.7472 -67.8285 6.7615
58.8526 -67.8279 6.7547
58.9572 -67.8271 6.7522
59.0601 -67.8257 6.7597
59.1615 -67.8238 6.7753
59.2623 -67.8217 6.7945
59.3632 -67.8197 6.8127
59.4652 -67.818 6.825
59.5692 -67.817 6.8261
59.6753 -67.8167 6.8158
59.7822 -67.8166 6.8011
59.8898 -67.8167 6.7829
60.0017 -67.8183 6.7408
33.5937 -68.2081 6.2291
33.6909 -68.2024 6.3064
33.9765 -68.181 6.6064
34.0722 -68.1743 6.6983
34.1687 -68.1683 6.7802
34.266 -68.1629 6.8517
34.3642 -68.1582 6.9119
34.4636 -68.1544 6.9576
34.5641 -68.1514 6.9885
34.665 -68.1487 7.0162
34.7654 -68.1457 7.0479
34.8665 -68.1432 7.0725
34.9695 -68.142 7.0744
35.0741 -68.142 7.0581
35.1786 -68.1418 7.0437
35.2818 -68.1408 7.0431
35.384 -68.139 7.0548
35.4861 -68.1372 7.0671
35.5896 -68.1364 7.0629
35.6945 -68.1365 7.0449
35.7974 -68.1352 7.0484
35.8975 -68.1321 7.0826
35.9983 -68.1294 7.1094
36.1017 -68.1286 7.1062
36.2068 -68.1287 7.0859
36.3113 -68.1286 7.0714
36.4143 -68.1274 7.0741
36.5162 -68.1255 7.0885
36.6187 -68.124 7.0957
36.7253 -68.1251 7.0601
36.8368 -68.1294 6.9722
36.9497 -68.1346 6.869
37.062 -68.1393 6.7742
37.1742 -68.1439 6.681
37.2891 -68.1502 6.5599
37.4083 -68.1592 6.3951
37.5279 -68.1683 6.2282
37.6434 -68.1747 6.1048
37.7539 -68.178 6.0334
37.8616 -68.1794 5.9923
37.9683 -68.1802 5.9617
38.0745 -68.1807 5.9362
38.1807 -68.1812 5.9112
38.2872 -68.1819 5.8826
38.3935 -68.1824 5.8576
38.4981 -68.1819 5.8489
38.6013 -68.1805 5.8552
38.7043 -68.179 5.8621
38.8083 -68.1781 5.86
38.9128 -68.1775 5.8534
39.0163 -68.1763 5.8557
39.1182 -68.1741 5.8741
39.2191 -68.1714 5.9022
39.3197 -68.1685 5.9328
39.4208 -68.1659 5.9588
39.5231 -68.164 5.9729
39.6262 -68.1626 5.9794
39.7289 -68.1609 5.9893
39.8308 -68.1588 6.0077
39.9323 -68.1565 6.0292
40.0339 -68.1542 6.0489
40.1355 -68.1519 6.0697
40.2367 -68.1495 6.0932
40.3384 -68.1473 6.1127
40.4406 -68.1454 6.1261
40.5422 -68.1432 6.1465
40.6421 -68.14 6.1814
40.7418 -68.1368 6.2183
40.8435 -68.1346 6.2372
40.9473 -68.1337 6.2358
41.0525 -68.1335 6.2223
41.1591 -68.134 6.1966
41.2668 -68.1352 6.1602
41.3751 -68.1367 6.1187
41.4835 -68.1381 6.0775
41.5907 -68.139 6.0463
41.6962 -68.1389 6.0312
41.8004 -68.1381 6.0277
41.9046 -68.1372 6.0247
42.0105 -68.1373 6.0058
42.1192 -68.1389 5.9633
42.2293 -68.1412 5.9082
42.3397 -68.1436 5.8517
42.4491 -68.1455 5.8032
42.5558 -68.1459 5.7792
42.6587 -68.1443 5.7882
42.7587 -68.1413 5.8223
42.8574 -68.1376 5.867
42.9569 -68.1343 5.9047
43.0593 -68.1324 5.9181
43.1642 -68.1319 5.9092
43.2685 -68.1311 5.9059
43.3694 -68.1285 5.9317
43.4687 -68.1252 5.9705
43.5698 -68.1228 5.9938
43.6734 -68.1216 5.9959
43.7784 -68.1211 5.9871
43.8839 -68.1209 5.9736
43.9902 -68.1211 5.9541
44.0976 -68.1218 5.9249
44.2055 -68.1228 5.8925
44.3119 -68.123 5.8724
44.4161 -68.1221 5.87
44.5198 -68.121 5.8724
44.6244 -68.1203 5.8675
44.7295 -68.1198 5.8585
44.8337 -68.1189 5.8563
44.9368 -68.1174 5.8642
45.0393 -68.1157 5.8756
45.142 -68.1141 5.8862
45.2445 -68.1123 5.8983
45.3468 -68.1105 5.9112
45.4499 -68.1091 5.9184
45.5536 -68.1079 5.9209
45.6568 -68.1066 5.9266
45.7594 -68.1049 5.9378
45.8617 -68.1031 5.9513
45.9636 -68.1011 5.9668
46.0655 -68.0991 5.9837
46.168 -68.0975 5.9946
46.2721 -68.0965 5.9937
46.3768 -68.0958 5.9885
46.4806 -68.0947 5.9902
46.5832 -68.0931 6.0008
46.6851 -68.0911 6.0164
46.787 -68.0891 6.0326
46.8895 -68.0875 6.0439
46.993 -68.0862 6.0476
47.0967 -68.0851 6.0496
47.1993 -68.0834 6.0607
47.3005 -68.0812 6.0816
47.4017 -68.0789 6.102
47.5042 -68.0773 6.1131
47.6078 -68.0761 6.1162
47.7112 -68.0748 6.1207
47.8137 -68.0732 6.1317
47.9158 -68.0713 6.1456
48.0178 -68.0695 6.1602
48.1195 -68.0674 6.177
48.2208 -68.0653 6.1968
48.3221 -68.0631 6.2159
48.4249 -68.0616 6.2244
48.5301 -68.0611 6.216
48.6363 -68.0611 6.1997
48.7423 -68.061 6.1854
48.8478 -68.0606 6.1746
48.9523 -68.0598 6.1716
49.0549 -68.0583 6.1811
49.157 -68.0564 6.1953
49.2597 -68.0549 6.2045
49.3635 -68.0538 6.2058
49.468 -68.053 6.2027
49.572 -68.052 6.2028
49.675 -68.0505 6.2104
49.7773 -68.0488 6.2223
49.8796 -68.0471 6.2343
49.9824 -68.0456 6.2427
50.0861 -68.0445 6.2448
50.1912 -68.0439 6.2377
50.2978 -68.044 6.2201
50.4047 -68.0442 6.2008
50.5098 -68.0437 6.1933
50.6125 -68.0421 6.2032
50.7138 -68.0399 6.2221
50.8158 -68.0381 6.2358
50.9191 -68.0368 6.2414
51.0224 -68.0355 6.2466
51.1247 -68.0338 6.2581
51.2268 -68.032 6.2719
51.3302 -68.0308 6.276
51.4354 -68.0303 6.2685
51.5402 -68.0296 6.2637
51.6435 -68.0283 6.2689
51.7468 -68.027 6.2744
51.8504 -68.0258 6.2776
51.9538 -68.0245 6.2821
52.0571 -68.0232 6.2877
52.1602 -68.0219 6.2939
52.263 -68.0204 6.3027
52.3652 -68.0186 6.315
52.4671 -68.0168 6.3292
52.5695 -68.0152 6.3402
52.673 -68.0139 6.3443
52.7769 -68.0129 6.3457
52.88 -68.0115 6.3522
52.9824 -68.0099 6.3631
53.0855 -68.0085 6.3694
53.1892 -68.0074 6.3721
53.2924 -68.0061 6.3781
53.3956 -68.0047 6.384
53.4999 -68.0038 6.3829
53.6045 -68.0031 6.3796
53.7078 -68.0017 6.3851
53.8096 -67.9999 6.3998
53.9113 -67.998 6.4151
54.0131 -67.9961 6.4296
54.1146 -67.9942 6.4461
54.2166 -67.9924 6.4593
54.3204 -67.9913 6.4613
54.4255 -67.9907 6.455
54.5298 -67.9898 6.4539
54.632 -67.9881 6.4659
54.7332 -67.9861 6.4841
54.8357 -67.9845 6.4946
54.9406 -67.9838 6.4896
55.0465 -67.9835 6.4789
55.1505 -67.9825 6.4797
55.2516 -67.9804 6.4985
55.3513 -67.9778 6.5252
55.4529 -67.9759 6.5409
55.5578 -67.9752 6.5361
55.6649 -67.9753 6.5183
55.7716 -67.9753 6.503
55.8767 -67.9746 6.498
55.9808 -67.9737 6.498
56.0853 -67.9728 6.4965
56.1896 -67.9718 6.4959
56.2926 -67.9705 6.5026
56.3946 -67.9687 6.5159
56.4962 -67.9669 6.5309
56.5971 -67.9647 6.5505
56.6968 -67.9622 6.5766
56.7971 -67.9599 6.5995
56.8993 -67.9582 6.6115
57.0019 -67.9567 6.6205
57.1028 -67.9546 6.6395
57.2023 -67.952 6.6666
57.303 -67.9498 6.6871
57.4058 -67.9484 6.6948
57.5092 -67.9472 6.6991
57.6112 -67.9455 6.7117
57.7112 -67.9431 6.736
57.8108 -67.9405 6.7622
57.912 -67.9386 6.7787
58.0153 -67.9373 6.784
58.1196 -67.9364 6.7829
58.2247 -67.9358 6.7779
58.3302 -67.9353 6.7703
58.4359 -67.9348 6.7617
58.541 -67.9342 6.7568
58.645 -67.9332 6.7574
58.7489 -67.9321 6.7591
58.8531 -67.9312 6.7591
58.957 -67.9301 6.7612
59.0596 -67.9286 6.77
59.1612 -67.9268 6.7844
59.2626 -67.9249 6.8004
59.3639 -67.923 6.8165
59.4655 -67.9212 6.8309
59.5684 -67.9198 6.8378
59.6738 -67.9193 6.8315
59.7814 -67.9194 6.813
59.8892 -67.9196 6.7933
59.9996 -67.9207 6.7597
33.6919 -68.3055 6.3106
33.7883 -68.2992 6.3964
34.1708 -68.2721 6.7703
34.2683 -68.2667 6.8402
34.3667 -68.2622 6.8979
34.4663 -68.2585 6.9401
34.5673 -68.2559 6.9665
34.6686 -68.2534 6.9888
34.7693 -68.2506 7.0175
34.8704 -68.2481 7.0422
34.973 -68.2466 7.0496
35.0764 -68.2457 7.0469
35.1795 -68.2446 7.0482
35.2817 -68.2428 7.0595
35.3831 -68.2405 7.0796
35.4846 -68.2383 7.099
35.5877 -68.2373 7.0991
35.6925 -68.2373 7.0809
35.7961 -68.2365 7.0768
35.8972 -68.2341 7.1002
35.9986 -68.2318 7.1202
36.1022 -68.231 7.1152
36.2071 -68.2312 7.0965
36.3116 -68.2309 7.0828
36.415 -68.23 7.0807
36.518 -68.2288 7.0831
36.6221 -68.2284 7.0736
36.7295 -68.2301 7.0288
36.8404 -68.234 6.9472
36.953 -68.239 6.8484
37.0658 -68.2441 6.7479
37.1791 -68.2495 6.6429
37.2955 -68.2567 6.5067
37.4158 -68.2664 6.3309
37.536 -68.276 6.1572
37.6514 -68.2824 6.0347
37.7606 -68.2849 5.9778
37.8661 -68.2849 5.9598
37.9708 -68.2845 5.9496
38.0761 -68.2845 5.9334
38.1823 -68.285 5.908
38.289 -68.2857 5.8783
38.395 -68.2861 5.8551
38.4995 -68.2855 5.8485
38.6024 -68.2839 5.8572
38.7051 -68.2823 5.867
38.8087 -68.2811 5.8688
38.9125 -68.2801 5.8687
39.0151 -68.2784 5.88
39.1161 -68.2757 5.9075
39.2161 -68.2724 5.9447
39.3159 -68.269 5.9834
39.4162 -68.2659 6.0166
39.5177 -68.2636 6.0381
39.6204 -68.2619 6.0481
39.7234 -68.2605 6.055
39.8259 -68.2587 6.0666
39.928 -68.2568 6.0817
40.0302 -68.2549 6.0965
40.132 -68.2527 6.1146
40.2333 -68.2503 6.1379
40.335 -68.2481 6.1565
40.4377 -68.2465 6.1663
40.5398 -68.2446 6.1809
40.6405 -68.2418 6.209
40.741 -68.239 6.2386
40.8426 -68.2368 6.2578
40.9459 -68.2356 6.2612
41.0512 -68.2354 6.2468
41.1584 -68.2364 6.2144
41.2669 -68.238 6.1707
41.3759 -68.2398 6.1238
41.4845 -68.2415 6.0801
41.5916 -68.2423 6.0503
41.6966 -68.2419 6.0394
41.8006 -68.241 6.0381
41.9044 -68.2399 6.0384
42.0093 -68.2395 6.0286
42.1169 -68.2405 5.9954
42.2267 -68.2427 5.9426
42.3377 -68.2454 5.8807
42.4485 -68.2481 5.8201
42.5568 -68.2494 5.782
42.6607 -68.2483 5.7828
42.7611 -68.2455 5.8133
42.8601 -68.2419 5.8556
42.9595 -68.2385 5.8939
43.0612 -68.2363 5.9131
43.1655 -68.2356 5.9091
43.2703 -68.235 5.9018
43.3727 -68.2332 5.9147
43.4732 -68.2304 5.9434
43.5747 -68.2282 5.9638
43.6782 -68.2269 5.9674
43.7828 -68.2263 5.961
43.8881 -68.226 5.9495
43.9941 -68.226 5.9327
44.1012 -68.2266 5.9065
44.2087 -68.2274 5.8769
44.3147 -68.2274 5.8599
44.4187 -68.2264 5.8598
44.5221 -68.2251 5.8645
44.6261 -68.2241 5.8648
44.7302 -68.2232 5.8631
44.8341 -68.2221 5.8643
44.9375 -68.2208 5.8686
45.0408 -68.2195 5.8743
45.1439 -68.218 5.8815
45.2466 -68.2164 5.8915
45.3493 -68.2148 5.9017
45.4527 -68.2135 5.9067
45.5563 -68.2123 5.9097
45.6591 -68.2107 5.9195
45.761 -68.2087 5.9353
45.8628 -68.2066 5.9526
45.9644 -68.2045 5.9717
46.0659 -68.2023 5.9909
46.1681 -68.2005 6.0043
46.2715 -68.1992 6.0087
46.3755 -68.1982 6.0088
46.4792 -68.1971 6.0111
46.5826 -68.1958 6.0155
46.6859 -68.1945 6.0208
46.789 -68.1931 6.0279
46.892 -68.1916 6.0353
46.9949 -68.1901 6.0432
47.0969 -68.1882 6.0586
47.1973 -68.1856 6.0854
47.2969 -68.1826 6.1181
47.397 -68.1798 6.1473
47.4991 -68.178 6.1611
47.6039 -68.1773 6.1551
47.7091 -68.1769 6.1461
47.8115 -68.1752 6.1578
47.9116 -68.1724 6.1865
48.0114 -68.1696 6.217
48.1123 -68.1673 6.2391
48.2145 -68.1655 6.2522
48.3176 -68.1641 6.2584
48.4221 -68.1634 6.2542
48.5281 -68.1632 6.2399
48.634 -68.1631 6.226
48.7388 -68.1625 6.2202
48.8431 -68.1616 6.2179
48.9471 -68.1606 6.218
49.0503 -68.1593 6.2238
49.1532 -68.1578 6.2313
49.2569 -68.1567 6.2336
49.3616 -68.156 6.2285
49.4667 -68.1555 6.2208
49.5705 -68.1544 6.223
49.6722 -68.1524 6.2391
49.7732 -68.1501 6.2603
49.8747 -68.1481 6.2777
49.9771 -68.1464 6.2888
50.0803 -68.1451 6.2946
50.1847 -68.1443 6.2918
50.2909 -68.1442 6.277
50.3976 -68.1443 6.2586
50.5031 -68.1439 6.2487
50.6065 -68.1427 6.2529
50.7087 -68.1409 6.266
50.8108 -68.1391 6.2793
50.9134 -68.1375 6.2891
51.0158 -68.1359 6.2999
51.118 -68.1341 6.3129
51.2209 -68.1327 6.3206
51.3253 -68.1318 6.3182
51.4302 -68.1312 6.3124
51.5342 -68.1302 6.3126
51.6377 -68.129 6.3165
51.7414 -68.1279 6.3189
51.8452 -68.1268 6.3208
51.9487 -68.1256 6.3244
52.0521 -68.1243 6.3291
52.1558 -68.1232 6.3317
52.2598 -68.1222 6.332
52.3632 -68.1209 6.3367
52.4656 -68.1193 6.348
52.5682 -68.1177 6.3579
52.6717 -68.1165 6.3614
52.7756 -68.1154 6.363
52.8787 -68.1141 6.3694
52.9814 -68.1126 6.3781
53.085 -68.1114 6.3817
53.1888 -68.1103 6.3833
53.2916 -68.1088 6.3915
53.3942 -68.1073 6.4012
53.4982 -68.1063 6.402
53.6027 -68.1054 6.3996
53.7056 -68.104 6.4072
53.8072 -68.1021 6.4233
53.9089 -68.1002 6.4387
54.0105 -68.0983 6.454
54.1117 -68.0962 6.4722
54.2137 -68.0944 6.4855
54.318 -68.0935 6.4846
54.4239 -68.0932 6.4733
54.5293 -68.0927 6.4656
54.6321 -68.0913 6.4738
54.7326 -68.0889 6.4961
54.8334 -68.0867 6.5166
54.9375 -68.0857 6.517
55.0441 -68.0857 6.502
55.1497 -68.0853 6.4926
55.2522 -68.0837 6.503
55.3527 -68.0814 6.5251
55.4545 -68.0796 6.539
55.5596 -68.079 6.5335
55.6666 -68.079 6.5161
55.7728 -68.0788 6.5041
55.8769 -68.0778 6.5047
55.9805 -68.0766 6.508
56.0855 -68.076 6.5034
56.1913 -68.0756 6.4935
56.2958 -68.0747 6.4919
56.3975 -68.0729 6.5067
56.4975 -68.0704 6.5314
56.5967 -68.0677 6.5606
56.6957 -68.0649 6.591
56.7963 -68.0627 6.6124
56.8994 -68.0613 6.6183
57.0034 -68.0603 6.6194
57.1057 -68.0587 6.6304
57.206 -68.0564 6.6532
57.3064 -68.0541 6.6752
57.4082 -68.0523 6.6885
57.5108 -68.0508 6.6981
57.6123 -68.0489 6.7135
57.7124 -68.0466 6.7368
57.8125 -68.0442 6.76
57.914 -68.0423 6.7751
58.0171 -68.041 6.7809
58.1216 -68.0402 6.7796
58.2269 -68.0396 6.7731
58.3328 -68.0393 6.763
58.4388 -68.0389 6.7531
58.5434 -68.0381 6.7503
58.6466 -68.0368 6.7564
58.7493 -68.0354 6.7644
58.8527 -68.0341 6.7693
58.9562 -68.0329 6.7733
59.0592 -68.0316 6.7801
59.1616 -68.03 6.79
59.2638 -68.0284 6.8013
59.3656 -68.0266 6.8146
59.4671 -68.0248 6.8296
59.5693 -68.0232 6.8404
59.6734 -68.0222 6.8409
59.7809 -68.0224 6.8231
59.8914 -68.0235 6.7886
60.0021 -68.0247 6.7534
33.6019 -68.4191 6.1602
33.6973 -68.412 6.2594
33.7927 -68.4048 6.3583
34.1736 -68.3763 6.7525
34.2712 -68.3711 6.8205
34.3696 -68.3665 6.8785
34.469 -68.3626 6.9237
34.5698 -68.3598 6.9521
34.6712 -68.3575 6.9731
34.7723 -68.3549 6.9975
34.8737 -68.3526 7.019
34.976 -68.3509 7.0292
35.0784 -68.3493 7.0388
35.18 -68.3471 7.0568
35.2813 -68.3447 7.078
35.3826 -68.3424 7.0993
35.4844 -68.3404 7.1152
35.5875 -68.3393 7.1157
35.6917 -68.3389 7.1046
35.795 -68.338 7.1035
35.8966 -68.3358 7.1212
35.9984 -68.3338 7.1362
36.1024 -68.3333 7.1278
36.2075 -68.3336 7.1066
36.312 -68.3334 7.0925
36.4156 -68.3326 7.0881
36.5194 -68.332 7.0822
36.6247 -68.3323 7.0593
36.733 -68.3346 7.0048
36.8443 -68.3389 6.9193
36.9575 -68.3443 6.8141
37.072 -68.3505 6.6956
37.1874 -68.3572 6.5697
37.3041 -68.3648 6.4295
37.4232 -68.3737 6.2672
37.5417 -68.3823 6.111
37.6561 -68.3881 5.9997
37.7646 -68.3901 5.9503
37.8689 -68.3894 5.9443
37.9724 -68.3883 5.946
38.0769 -68.3877 5.938
38.183 -68.3882 5.9139
38.2898 -68.389 5.8831
38.3955 -68.3892 5.8631
38.4994 -68.3882 5.8624
38.6019 -68.3864 5.8747
38.7044 -68.3846 5.887
38.8076 -68.3832 5.8934
38.9106 -68.3817 5.9005
39.0125 -68.3795 5.9192
39.1129 -68.3765 5.952
39.2124 -68.3729 5.9933
39.3118 -68.3693 6.0354
39.4117 -68.366 6.0724
39.5127 -68.3634 6.0986
39.6151 -68.3615 6.1119
39.7179 -68.36 6.1201
39.8205 -68.3583 6.1311
39.9229 -68.3566 6.1427
40.0257 -68.355 6.1518
40.128 -68.3531 6.1649
40.2295 -68.3508 6.186
40.3312 -68.3487 6.2045
40.4341 -68.3472 6.212
40.5371 -68.3457 6.2185
40.6392 -68.3438 6.2333
40.7408 -68.3416 6.2524
40.8426 -68.3395 6.2696
40.9456 -68.3381 6.2758
41.0511 -68.3381 6.2597
41.1588 -68.3393 6.2228
41.2677 -68.3412 6.1758
41.3769 -68.3432 6.1267
41.4853 -68.3447 6.0846
41.5918 -68.3452 6.0604
41.6966 -68.3447 6.0515
41.8007 -68.3439 6.0488
41.9045 -68.3428 6.0491
42.0087 -68.342 6.0456
42.1152 -68.3424 6.0221
42.2244 -68.3443 5.9745
42.3356 -68.3472 5.9106
42.4473 -68.3504 5.8422
42.557 -68.3525 5.7917
42.6621 -68.3521 5.7816
42.7632 -68.3496 5.8059
42.8629 -68.3463 5.8427
42.9628 -68.3432 5.8766
43.0642 -68.3409 5.8984
43.1674 -68.3395 5.9045
43.2714 -68.3385 5.9038
43.3745 -68.337 5.911
43.4764 -68.335 5.9277
43.5789 -68.3333 5.9391
43.6828 -68.3323 5.9392
43.7876 -68.3317 5.9318
43.8931 -68.3315 5.9195
43.9989 -68.3314 5.9039
44.1053 -68.3317 5.883
44.2122 -68.3321 5.8589
44.3177 -68.3319 5.8463
44.4211 -68.3306 5.8515
44.5237 -68.3289 5.8627
44.6268 -68.3274 5.8695
44.7304 -68.3263 5.8724
44.8339 -68.325 5.8762
44.9371 -68.3236 5.8824
45.0404 -68.3223 5.8883
45.1438 -68.321 5.8926
45.2474 -68.3198 5.8959
45.3511 -68.3186 5.8984
45.4547 -68.3175 5.9012
45.5578 -68.316 5.9083
45.6598 -68.3141 5.9238
45.7614 -68.3119 5.9428
45.8629 -68.3097 5.9621
45.9641 -68.3074 5.9841
46.0652 -68.305 6.0063
46.1671 -68.303 6.0227
46.27 -68.3015 6.031
46.3735 -68.3003 6.0345
46.4771 -68.2991 6.0373
46.5811 -68.2981 6.0373
46.6856 -68.2973 6.0332
46.7899 -68.2965 6.0311
46.8931 -68.2951 6.0369
46.9944 -68.2929 6.0571
47.094 -68.2899 6.0902
47.1931 -68.2866 6.1272
47.2921 -68.2833 6.1644
47.3914 -68.2803 6.1987
47.4928 -68.2781 6.2181
47.5978 -68.2776 6.2104
47.7038 -68.2775 6.1951
47.8063 -68.2758 6.2061
47.9055 -68.2727 6.241
48.0047 -68.2696 6.2759
48.1059 -68.2674 6.2957
48.2095 -68.2662 6.2982
48.3144 -68.2657 6.2911
48.42 -68.2654 6.2795
48.5257 -68.2652 6.2665
48.6307 -68.2646 6.2592
48.7344 -68.2635 6.2613
48.8377 -68.2623 6.2659
48.9414 -68.2611 6.2683
49.045 -68.26 6.2709
49.1485 -68.2588 6.2743
49.2526 -68.2578 6.2738
49.3576 -68.2573 6.2668
49.4625 -68.2567 6.2603
49.5656 -68.2553 6.2667
49.6669 -68.2531 6.2858
49.7677 -68.2508 6.3077
49.8692 -68.2488 6.3251
49.9717 -68.2471 6.3359
50.0748 -68.2458 6.342
50.1789 -68.2448 6.3411
50.2846 -68.2446 6.3296
50.3908 -68.2445 6.3143
50.4959 -68.2439 6.3074
50.599 -68.2426 6.3133
50.7015 -68.241 6.3241
50.8041 -68.2394 6.3337
50.9065 -68.2378 6.3445
51.0084 -68.2359 6.359
51.1104 -68.2341 6.3731
51.2137 -68.2328 6.3778
51.3185 -68.2321 6.3728
51.4231 -68.2314 6.3686
51.5273 -68.2305 6.3679
51.6317 -68.2296 6.3655
51.736 -68.2288 6.3637
51.8396 -68.2276 6.3668
51.9429 -68.2263 6.3718
52.0464 -68.2251 6.3758
52.1503 -68.2241 6.3767
52.2547 -68.2232 6.3742
52.3589 -68.2223 6.3735
52.4622 -68.221 6.3786
52.5652 -68.2196 6.3855
52.6683 -68.2182 6.3921
52.7711 -68.2168 6.4001
52.8738 -68.2152 6.4091
52.9773 -68.214 6.4134
53.0823 -68.2134 6.4072
53.1876 -68.2129 6.3996
53.2909 -68.2116 6.4047
53.3931 -68.2099 6.4167
53.4965 -68.2087 6.4212
53.6003 -68.2076 6.4231
53.7025 -68.2059 6.4352
53.804 -68.2039 6.452
53.906 -68.2021 6.465
54.0079 -68.2003 6.479
54.109 -68.1982 6.498
54.211 -68.1965 6.5108
54.3158 -68.1957 6.5068
54.4224 -68.1957 6.4913
54.5286 -68.1955 6.4783
54.6322 -68.1944 6.4817
54.7326 -68.192 6.5044
54.8324 -68.1894 6.5309
54.9349 -68.1878 6.5413
55.0407 -68.1875 6.5309
55.147 -68.1873 6.5177
55.2508 -68.1863 6.5196
55.3526 -68.1844 6.534
55.4553 -68.1829 6.5426
55.5607 -68.1824 6.5349
55.6683 -68.1827 6.5142
55.7749 -68.1827 6.4994
55.8783 -68.1814 6.5041
55.9806 -68.1798 6.5156
56.0847 -68.1788 6.5161
56.1906 -68.1785 6.5056
56.2956 -68.1778 6.501
56.397 -68.1758 6.5176
56.4961 -68.173 6.5475
56.5956 -68.1704 6.5753
56.6963 -68.1682 6.5956
56.7985 -68.1665 6.6074
56.9017 -68.1652 6.6128
57.0052 -68.164 6.617
57.1077 -68.1625 6.6265
57.2089 -68.1605 6.6441
57.3096 -68.1583 6.6641
57.4116 -68.1566 6.6766
57.5143 -68.1551 6.6854
57.6154 -68.1531 6.7031
57.715 -68.1505 6.7294
57.8148 -68.1481 6.7543
57.9161 -68.1461 6.7708
58.0192 -68.1448 6.7771
58.1237 -68.144 6.7748
58.2293 -68.1435 6.7669
58.3353 -68.1432 6.7565
58.441 -68.1428 6.7479
58.5453 -68.1418 6.7475
58.6479 -68.1404 6.7563
58.7502 -68.1387 6.7674
58.8527 -68.1372 6.7768
58.9554 -68.1358 6.7851
59.0584 -68.1344 6.7921
59.1617 -68.1332 6.7966
59.2653 -68.132 6.8005
59.3678 -68.1305 6.8095
59.4694 -68.1287 6.8242
59.5711 -68.1269 6.8378
59.674 -68.1255 6.8451
59.7793 -68.1249 6.8394
59.8944 -68.1276 6.7797
60.0102 -68.1305 6.7165
33.6053 -68.5241 6.1342
33.7022 -68.518 6.2159
33.7969 -68.5103 6.3228
33.8913 -68.5025 6.4329
33.9856 -68.4946 6.5431
34.0805 -68.4872 6.6453
34.1769 -68.481 6.7281
34.2745 -68.4757 6.7963
34.3727 -68.4709 6.8568
34.4717 -68.4668 6.9069
34.572 -68.4635 6.942
34.673 -68.4609 6.9678
34.774 -68.4583 6.9936
34.8753 -68.4559 7.0151
34.9773 -68.4539 7.0298
35.0787 -68.4516 7.0503
35.1794 -68.4488 7.0784
35.2805 -68.4463 7.1025
35.3823 -68.4443 7.1178
35.4846 -68.4427 7.1273
35.5876 -68.4415 7.13
35.691 -68.4406 7.1272
35.7939 -68.4393 7.1303
35.8959 -68.4375 7.143
35.9986 -68.4361 7.1482
36.1034 -68.4362 7.1305
36.2088 -68.4367 7.1062
36.3131 -68.4363 7.095
36.4166 -68.4355 7.0914
36.5209 -68.4352 7.0794
36.6272 -68.4362 7.0471
36.7363 -68.439 6.9842
36.8484 -68.4438 6.8895
36.9629 -68.4501 6.7707
37.0791 -68.4575 6.6344
37.196 -68.4653 6.4918
37.3127 -68.4728 6.3536
37.4292 -68.4802 6.2177
37.5446 -68.4867 6.0948
37.6569 -68.4913 6.0049
37.7655 -68.4934 5.9539
37.8706 -68.4932 5.9397
37.9742 -68.4921 5.9415
38.0783 -68.4913 5.9371
38.1841 -68.4916 5.9163
38.2904 -68.4921 5.8908
38.3951 -68.4917 5.8803
38.498 -68.4901 5.8895
38.6 -68.488 5.9072
38.7023 -68.486 5.9219
38.8049 -68.4843 5.9327
38.9071 -68.4824 5.9479
39.0083 -68.4797 5.9736
39.1085 -68.4766 6.0083
39.2081 -68.4731 6.048
39.3078 -68.4696 6.0878
39.4078 -68.4664 6.1231
39.5088 -68.4638 6.1489
39.611 -68.4618 6.1635
39.7135 -68.4601 6.1751
39.8158 -68.4582 6.1885
39.9183 -68.4566 6.1988
40.0214 -68.4552 6.2049
40.1241 -68.4536 6.2144
40.2259 -68.4514 6.2319
40.3278 -68.4494 6.2487
40.4309 -68.448 6.2538
40.5347 -68.4471 6.2522
40.6382 -68.446 6.2542
40.7409 -68.4444 6.2636
40.8431 -68.4426 6.2765
40.9466 -68.4414 6.2783
41.0527 -68.4417 6.2568
41.1604 -68.443 6.2201
41.2689 -68.4446 6.1766
41.3778 -68.4465 6.1302
41.4859 -68.4478 6.0915
41.5921 -68.4482 6.0697
41.697 -68.4478 6.0597
41.8015 -68.4471 6.0533
41.9055 -68.4462 6.0513
42.0095 -68.4453 6.0503
42.1147 -68.445 6.0377
42.2228 -68.4463 6.0003
42.3337 -68.4491 5.9382
42.446 -68.4526 5.8648
42.5568 -68.4553 5.8047
42.6634 -68.4557 5.7819
42.7658 -68.4539 5.7953
42.8663 -68.451 5.825
42.9667 -68.4482 5.8552
43.0681 -68.4458 5.8769
43.1707 -68.4441 5.8878
43.2739 -68.4428 5.8936
43.3768 -68.4412 5.902
43.4796 -68.4396 5.912
43.583 -68.4383 5.9161
43.6874 -68.4376 5.9123
43.7924 -68.4371 5.9029
43.898 -68.4369 5.8895
44.0036 -68.4368 5.8753
44.1095 -68.4368 5.8593
44.2158 -68.4369 5.8407
44.3207 -68.4364 5.8329
44.423 -68.4345 5.8468
44.5245 -68.4323 5.8669
44.627 -68.4306 5.8782
44.7303 -68.4292 5.8837
44.8332 -68.4277 5.8927
44.9356 -68.4259 5.9055
45.0384 -68.4243 5.9145
45.1424 -68.4233 5.9146
45.2474 -68.4228 5.9062
45.3524 -68.4223 5.8988
45.4557 -68.421 5.9035
45.5574 -68.4188 5.9218
45.6585 -68.4164 5.945
45.7599 -68.4142 5.965
45.8618 -68.4122 5.9816
45.9632 -68.41 6.001
46.0644 -68.4076 6.0229
46.166 -68.4055 6.0416
46.2682 -68.4037 6.0547
46.371 -68.4021 6.0635
46.4743 -68.4008 6.0693
46.5783 -68.3998 6.0689
46.6831 -68.3992 6.0622
46.7878 -68.3985 6.0568
46.8907 -68.397 6.0652
46.9905 -68.3941 6.0964
47.0889 -68.3905 6.139
47.1875 -68.387 6.1791
47.2864 -68.3837 6.2166
47.3857 -68.3806 6.2517
47.4866 -68.3782 6.274
47.5906 -68.3773 6.2733
47.6959 -68.3769 6.2634
47.7987 -68.3754 6.2718
47.8988 -68.3727 6.3
47.9991 -68.37 6.3266
48.1014 -68.3683 6.3383
48.206 -68.3676 6.3334
48.3118 -68.3675 6.3197
48.4176 -68.3673 6.3065
48.5227 -68.3668 6.2983
48.6267 -68.3659 6.2974
48.7297 -68.3644 6.3046
48.8321 -68.3628 6.3154
48.935 -68.3613 6.323
49.0384 -68.3601 6.3275
49.1419 -68.3589 6.3307
49.2461 -68.358 6.3293
49.3509 -68.3574 6.3234
49.455 -68.3565 6.3222
49.5576 -68.3549 6.3322
49.6593 -68.3529 6.3482
49.7609 -68.3509 6.3649
49.8628 -68.349 6.3794
49.9654 -68.3475 6.3885
50.0689 -68.3463 6.3917
50.1733 -68.3455 6.3888
50.2788 -68.3451 6.3788
50.3846 -68.3449 6.3666
50.489 -68.3441 6.3637
50.5917 -68.3425 6.3726
50.6942 -68.3409 6.3828
50.7972 -68.3396 6.3894
50.9001 -68.3381 6.3969
51.0025 -68.3365 6.4079
51.1046 -68.3347 6.4206
51.2071 -68.3331 6.431
51.3107 -68.3319 6.4341
51.4151 -68.3311 6.4314
51.5202 -68.3306 6.4242
51.6259 -68.3303 6.4127
51.7308 -68.3297 6.4069
51.834 -68.3283 6.4129
51.9363 -68.3266 6.4245
52.0389 -68.3251 6.4335
52.1424 -68.3239 6.4373
52.2464 -68.3229 6.4373
52.3507 -68.3221 6.4358
52.4552 -68.3213 6.4328
52.5598 -68.3205 6.4298
52.6631 -68.3192 6.4345
52.7651 -68.3174 6.4476
52.8673 -68.3157 6.4601
52.9714 -68.3148 6.4598
53.0781 -68.3148 6.4429
53.1852 -68.315 6.4235
53.2896 -68.3142 6.4215
53.3916 -68.3124 6.4347
53.494 -68.3108 6.446
53.5968 -68.3093 6.454
53.6988 -68.3075 6.4674
53.8006 -68.3057 6.4816
53.9032 -68.3041 6.4909
54.0053 -68.3024 6.5036
54.1063 -68.3002 6.523
54.2084 -68.2985 6.5354
54.3134 -68.2979 6.5295
54.4205 -68.298 6.5113
54.527 -68.298 6.4962
54.6308 -68.2969 6.4986
54.7316 -68.2947 6.5188
54.8316 -68.2922 6.544
54.9333 -68.2903 6.5592
55.0374 -68.2894 6.5588
55.1427 -68.2888 6.5518
55.2473 -68.288 6.5491
55.3516 -68.2871 6.5481
55.4566 -68.2865 6.5431
55.5625 -68.2862 6.5322
55.6701 -68.2865 6.5112
55.7771 -68.2866 6.4941
55.8797 -68.2851 6.5036
55.9801 -68.2827 6.5263
56.0823 -68.281 6.5382
56.1873 -68.2804 6.5334
56.2921 -68.2796 6.5294
56.3936 -68.2777 6.5455
56.4932 -68.2751 6.5724
56.5949 -68.2733 6.587
56.6997 -68.2725 6.5833
56.8043 -68.2717 6.5813
56.9065 -68.2701 6.5926
57.0076 -68.268 6.6109
57.109 -68.266 6.6272
57.2105 -68.2641 6.6425
57.3125 -68.2624 6.6555
57.4161 -68.2612 6.6588
57.52 -68.2602 6.6604
57.6209 -68.2581 6.6791
57.7194 -68.2551 6.7118
57.8182 -68.2523 6.7429
57.9188 -68.2501 6.7633
58.0216 -68.2487 6.7707
58.1263 -68.2479 6.768
58.2318 -68.2475 6.7602
58.3376 -68.247 6.7514
58.4428 -68.2465 6.7452
58.547 -68.2455 6.7454
58.6498 -68.2441 6.7534
58.7517 -68.2423 6.7661
58.8534 -68.2405 6.7804
58.955 -68.2387 6.795
59.0572 -68.2371 6.8061
59.161 -68.236 6.808
59.2661 -68.2353 6.8035
59.3698 -68.2343 6.8059
59.4717 -68.2325 6.8186
59.5734 -68.2307 6.8327
59.6758 -68.2292 6.8429
59.7791 -68.2279 6.8477
59.8862 -68.228 6.8318
60.007 -68.2325 6.7412
33.609 -68.6294 6.104
33.7038 -68.6216 6.2122
33.7993 -68.6145 6.3089
33.8944 -68.6071 6.4105
33.9891 -68.5995 6.5168
34.0842 -68.5922 6.6163
34.1807 -68.586 6.6982
34.2782 -68.5807 6.7677
34.3762 -68.5757 6.8309
34.4748 -68.5712 6.8855
34.5743 -68.5674 6.9293
34.6744 -68.5641 6.9667
34.7745 -68.5608 7.0027
34.8751 -68.5579 7.0324
34.9765 -68.5555 7.0535
35.0777 -68.553 7.0769
35.1782 -68.5501 7.1067
35.2793 -68.5476 7.1304
35.3815 -68.5458 7.142
35.484 -68.5443 7.1494
35.5866 -68.5429 7.1554
35.6897 -68.5418 7.1567
35.7928 -68.5407 7.1566
35.896 -68.5397 7.1572
36.0001 -68.5393 7.1462
36.1057 -68.5399 7.1194
36.2111 -68.5404 7.0957
36.3149 -68.5397 7.0894
36.4181 -68.5387 7.0893
36.5225 -68.5385 7.076
36.6294 -68.5399 7.0373
36.7393 -68.5433 6.9658
36.8524 -68.5488 6.8603
36.9679 -68.5558 6.7311
37.0849 -68.5638 6.5866
37.2024 -68.5719 6.4385
37.3187 -68.5793 6.304
37.4333 -68.5854 6.1887
37.5461 -68.5903 6.0934
37.6566 -68.5937 6.022
37.7651 -68.5958 5.9719
37.8715 -68.5965 5.9441
37.976 -68.5959 5.9365
38.0805 -68.5954 5.9285
38.1858 -68.5954 5.9122
38.2907 -68.595 5.9007
38.394 -68.5937 5.9053
38.4959 -68.5915 5.9236
38.5974 -68.5891 5.9457
38.6995 -68.5871 5.9626
38.8016 -68.5851 5.9783
38.9029 -68.5825 6.0025
39.0034 -68.5795 6.0346
39.1035 -68.5763 6.0698
39.2036 -68.573 6.1053
39.3039 -68.57 6.1382
39.4046 -68.5671 6.1673
39.5059 -68.5647 6.1897
39.6081 -68.5628 6.2044
39.7103 -68.5609 6.2178
39.8125 -68.559 6.2319
39.9151 -68.5574 6.2418
40.0182 -68.556 6.2476
40.121 -68.5545 6.2554
40.2233 -68.5527 6.2682
40.3257 -68.5509 6.2803
40.4291 -68.5497 6.2825
40.5335 -68.5491 6.2755
40.6381 -68.5486 6.2677
40.7418 -68.5476 6.267
40.845 -68.5463 6.2718
40.9492 -68.5456 6.2669
41.0555 -68.546 6.2429
41.1632 -68.5473 6.2067
41.2713 -68.5487 6.1667
41.3795 -68.5502 6.1268
41.4872 -68.5514 6.0917
41.5934 -68.5517 6.0694
41.6985 -68.5514 6.0578
41.8032 -68.5509 6.05
41.9075 -68.5502 6.0452
42.0115 -68.5492 6.0439
42.1158 -68.5485 6.0396
42.2221 -68.5488 6.0178
42.3319 -68.5511 5.9653
42.4442 -68.5546 5.8919
42.5562 -68.5579 5.8221
42.665 -68.5595 5.7798
42.7695 -68.5588 5.775
42.8706 -68.5563 5.7992
42.9707 -68.5532 5.8324
43.0719 -68.5508 5.855
43.1748 -68.5493 5.8637
43.2781 -68.5479 5.8696
43.3808 -68.5462 5.8796
43.4834 -68.5445 5.8909
43.5866 -68.5432 5.8969
43.6907 -68.5422 5.8954
43.7958 -68.5418 5.8863
43.9015 -68.5417 5.8714
44.0072 -68.5416 5.857
44.1128 -68.5414 5.8431
44.2186 -68.5413 5.8285
44.3228 -68.5404 5.8268
44.424 -68.538 5.849
44.5249 -68.5355 5.8744
44.6273 -68.5337 5.8866
44.7302 -68.5322 5.8956
44.832 -68.5301 5.913
44.9336 -68.5279 5.9323
45.0364 -68.5263 5.9417
45.141 -68.5256 5.9362
45.247 -68.5256 5.9203
45.3523 -68.5253 5.9096
45.4549 -68.5236 5.9207
45.5553 -68.5208 5.9492
45.6556 -68.518 5.9781
45.7573 -68.5159 5.9959
45.8599 -68.5143 6.0061
45.9622 -68.5125 6.0193
46.0636 -68.5102 6.0392
46.1648 -68.5079 6.0611
46.2663 -68.5057 6.0799
46.3684 -68.5038 6.0938
46.4712 -68.5023 6.103
46.5747 -68.5011 6.1062
46.6788 -68.5001 6.1053
46.7824 -68.499 6.1079
46.8842 -68.497 6.1244
46.9838 -68.4939 6.1577
47.0822 -68.4904 6.1989
47.1809 -68.4869 6.2382
47.2801 -68.4837 6.2743
47.3797 -68.4808 6.3063
47.4807 -68.4784 6.3281
47.5833 -68.4769 6.3373
47.6867 -68.4756 6.341
47.7896 -68.4742 6.3483
47.8916 -68.4723 6.3623
47.9937 -68.4705 6.3761
48.0969 -68.4692 6.381
48.2019 -68.4687 6.3728
48.3081 -68.4687 6.3564
48.4137 -68.4685 6.3447
48.5179 -68.4676 6.3421
48.6216 -68.4666 6.3439
48.7246 -68.4651 6.3511
48.8266 -68.4633 6.3647
48.9286 -68.4615 6.3784
49.0312 -68.4599 6.3883
49.1343 -68.4585 6.3939
49.2384 -68.4576 6.3929
49.3429 -68.4569 6.3891
49.4465 -68.4557 6.3917
49.549 -68.4541 6.402
49.6511 -68.4523 6.4145
49.7531 -68.4505 6.4282
49.855 -68.4486 6.4425
49.9578 -68.4472 6.4508
50.0621 -68.4463 6.4484
50.1673 -68.4459 6.4396
50.2728 -68.4456 6.429
50.3779 -68.4451 6.4211
50.482 -68.4441 6.4204
50.585 -68.4427 6.4271
50.6878 -68.4412 6.4355
50.7908 -68.4398 6.4422
50.894 -68.4385 6.4475
50.9972 -68.4372 6.4526
51.0996 -68.4356 6.4637
51.2005 -68.4334 6.4841
51.3021 -68.4314 6.5001
51.4062 -68.4304 6.4998
51.5126 -68.4305 6.4834
51.6203 -68.431 6.4589
51.7267 -68.431 6.4434
51.8296 -68.4296 6.4504
51.9299 -68.4271 6.4752
52.03 -68.4245 6.5011
52.1318 -68.4226 6.5159
52.2351 -68.4214 6.52
52.3399 -68.4207 6.5151
52.446 -68.4206 6.5016
52.5525 -68.4206 6.4859
52.6572 -68.4199 6.4817
52.7594 -68.4182 6.4931
52.8614 -68.4164 6.5066
52.9655 -68.4155 6.5063
53.0725 -68.4156 6.4875
53.1804 -68.4162 6.4625
53.2859 -68.4158 6.4537
53.3883 -68.4142 6.4643
53.4904 -68.4124 6.4773
53.5927 -68.4108 6.4882
53.6948 -68.409 6.501
53.7972 -68.4074 6.5115
53.9003 -68.406 6.5177
54.0026 -68.4044 6.5288
54.1039 -68.4024 6.5462
54.2062 -68.4007 6.5572
54.3112 -68.4001 6.5517
54.4182 -68.4002 6.534
54.5246 -68.4001 6.5198
54.6283 -68.399 6.5224
54.7296 -68.397 6.5392
54.8304 -68.3948 6.5599
54.9318 -68.3928 6.5765
55.0344 -68.3913 6.5854
55.1382 -68.3902 6.5876
55.2432 -68.3896 6.582
55.3499 -68.3896 6.5664
55.4569 -68.3897 6.5488
55.5633 -68.3896 6.5353
55.6703 -68.3897 6.5184
55.7768 -68.3896 6.5043
55.8794 -68.388 6.5137
55.979 -68.3854 6.5413
56.0794 -68.3831 6.5633
56.1832 -68.382 6.5657
56.288 -68.3812 6.5619
56.3905 -68.3797 6.572
56.492 -68.3777 6.5877
56.597 -68.3771 6.5829
56.705 -68.3775 6.5601
56.8112 -68.3773 6.5484
56.9123 -68.3752 6.5669
57.0109 -68.3723 6.5995
57.1108 -68.3698 6.6245
57.2124 -68.3679 6.6395
57.3154 -68.3665 6.6463
57.4204 -68.3658 6.6418
57.5254 -68.3652 6.6369
57.6268 -68.3633 6.6531
57.7251 -68.3602 6.6871
57.8233 -68.3572 6.7214
57.9232 -68.3547 6.7457
58.0255 -68.3531 6.7564
58.1297 -68.3522 6.7561
58.2348 -68.3515 6.751
58.3398 -68.3509 6.7465
58.4445 -68.3501 6.7437
58.5488 -68.3492 6.743
58.6518 -68.3478 6.7498
58.7532 -68.3459 6.7652
58.854 -68.3438 6.7842
58.955 -68.3418 6.8024
59.0566 -68.34 6.8167
59.1603 -68.3388 6.8195
59.2663 -68.3385 6.8097
59.3711 -68.3378 6.8064
59.4733 -68.3361 6.8174
59.5749 -68.3343 6.8322
59.6773 -68.3328 6.8417
59.7813 -68.3318 6.8429
59.8884 -68.3318 6.8272
60.0067 -68.3356 6.7503
33.6132 -68.7351 6.0687
33.7043 -68.7244 6.221
33.8015 -68.7185 6.2986
33.8974 -68.7117 6.3906
33.9926 -68.7044 6.4898
34.0881 -68.6974 6.5854
34.1846 -68.6912 6.6666
34.2821 -68.6858 6.7361
34.38 -68.6807 6.8009
34.4782 -68.6759 6.8609
34.5767 -68.6713 6.9165
34.6754 -68.667 6.9695
34.7744 -68.6628 7.0188
34.8742 -68.6593 7.0577
34.9754 -68.6569 7.0808
35.0769 -68.6546 7.1005
35.1778 -68.6519 7.1262
35.279 -68.6495 7.1488
35.3809 -68.6475 7.1635
35.4828 -68.6456 7.1768
35.5852 -68.644 7.1859
35.6885 -68.6431 7.1846
35.7925 -68.6426 7.1752
35.8971 -68.6426 7.1592
36.0025 -68.6431 7.1338
36.1083 -68.6438 7.1058
36.2131 -68.6439 7.0883
36.3163 -68.6429 7.0881
36.4189 -68.6414 7.095
36.5228 -68.6409 7.0869
36.6298 -68.6424 7.0461
36.7409 -68.6466 6.962
36.8556 -68.6532 6.8407
36.9721 -68.661 6.6997
37.0895 -68.6692 6.5524
37.2068 -68.6773 6.4058
37.3229 -68.6846 6.2733
37.4367 -68.6902 6.1672
37.5479 -68.6941 6.0879
37.657 -68.6966 6.0311
37.765 -68.6984 5.9869
37.8718 -68.6994 5.9544
37.9772 -68.6994 5.9368
38.0821 -68.6991 5.9257
38.1865 -68.6985 5.9184
38.2898 -68.6972 5.9225
38.3922 -68.6953 5.9362
38.4937 -68.6929 5.9589
38.5948 -68.6902 5.9848
38.6965 -68.6879 6.0056
38.7981 -68.6856 6.026
38.8987 -68.6827 6.0566
38.9987 -68.6793 6.0937
39.0987 -68.676 6.1297
39.1992 -68.6731 6.1605
39.3003 -68.6705 6.1855
39.4017 -68.6681 6.2076
39.5034 -68.6659 6.2262
39.6056 -68.664 6.2401
39.7079 -68.6621 6.2532
39.8101 -68.6603 6.267
39.9127 -68.6586 6.2777
40.0156 -68.6571 6.2842
40.1188 -68.6558 6.2892
40.2218 -68.6544 6.2949
40.3251 -68.6532 6.2986
40.4289 -68.6523 6.2967
40.5333 -68.6517 6.2897
40.6383 -68.6514 6.278
40.7433 -68.6511 6.2658
40.8478 -68.6506 6.2582
40.9527 -68.6503 6.2471
41.0592 -68.6509 6.2209
41.1676 -68.6525 6.1789
41.2759 -68.6541 6.1372
41.3832 -68.6551 6.1053
41.4899 -68.6557 6.0789
41.5958 -68.6559 6.0598
41.7007 -68.6555 6.05
41.8052 -68.6548 6.0442
41.9097 -68.6542 6.0374
42.0143 -68.6536 6.0311
42.1183 -68.6527 6.0294
42.2227 -68.652 6.024
42.3301 -68.6529 5.9929
42.4414 -68.656 5.9281
42.5541 -68.6597 5.8513
42.6654 -68.6627 5.7876
42.7726 -68.6634 5.7597
42.8746 -68.6614 5.7765
42.9744 -68.6582 5.8114
43.0757 -68.6558 5.8341
43.179 -68.6544 5.8395
43.2826 -68.6532 5.8425
43.3851 -68.6515 5.8545
43.4869 -68.6493 5.8727
43.5889 -68.6473 5.8886
43.6921 -68.6459 5.895
43.797 -68.6454 5.8873
43.903 -68.6455 5.8698
44.0092 -68.6456 5.8516
44.1149 -68.6455 5.837
44.22 -68.6451 5.8273
44.3233 -68.6437 5.8331
44.4241 -68.6411 5.8589
44.525 -68.6385 5.8839
44.6276 -68.6368 5.8953
44.73 -68.635 5.9083
44.8309 -68.6325 5.9327
44.932 -68.63 5.9557
45.035 -68.6286 5.9635
45.1399 -68.628 5.9559
45.2455 -68.6278 5.9428
45.3499 -68.6271 5.9391
45.4518 -68.625 5.9556
45.5519 -68.6221 5.9863
45.6524 -68.6194 6.0134
45.7549 -68.6177 6.0253
45.8583 -68.6165 6.029
45.961 -68.6149 6.039
46.0621 -68.6125 6.061
46.1624 -68.6097 6.09
46.2631 -68.6072 6.1144
46.3652 -68.6052 6.1292
46.4678 -68.6036 6.1389
46.5707 -68.6021 6.1474
46.6733 -68.6005 6.1575
46.775 -68.5985 6.1742
46.8757 -68.5959 6.1989
46.9754 -68.5929 6.2309
47.0745 -68.5897 6.2674
47.1736 -68.5865 6.3032
47.2732 -68.5835 6.3352
47.3736 -68.5808 6.3618
47.4746 -68.5785 6.3832
47.5757 -68.5762 6.4035
47.6774 -68.5743 6.4195
47.7804 -68.5729 6.4262
47.8839 -68.5717 6.4293
47.9869 -68.5703 6.4352
48.0905 -68.5692 6.4372
