57.7048 3.6287 5.8411
57.8176 3.6405 5.7966
57.9286 3.6501 5.7621
58.0371 3.6566 5.7421
58.1422 3.6588 5.742
58.245 3.6583 5.7547
58.3489 3.6591 5.7613
58.4558 3.6635 5.751
58.564 3.6696 5.733
58.6724 3.6759 5.714
58.7815 3.6829 5.6916
58.8905 3.6899 5.6694
58.9974 3.6942 5.6596
59.1008 3.6943 5.6694
59.2027 3.6928 5.6869
59.307 3.6939 5.6916
59.4145 3.699 5.6783
59.5232 3.7055 5.6585
59.6313 3.7112 5.6424
59.7375 3.7148 5.6361
59.8421 3.7163 5.6395
59.9483 3.7198 5.6335
60.0598 3.7294 5.5992
60.1734 3.7416 5.5529
60.2834 3.7494 5.527
60.3899 3.7531 5.52
60.4973 3.7579 5.5079
60.6075 3.7659 5.4811
60.7182 3.7745 5.4515
60.8266 3.7804 5.4348
60.9323 3.7832 5.4322
61.0383 3.7862 5.4284
61.1462 3.7914 5.4147
61.2543 3.7968 5.3999
61.3615 3.8012 5.3897
61.4698 3.807 5.3734
61.581 3.8159 5.3425
61.6941 3.827 5.3012
61.8074 3.8383 5.2595
61.9189 3.8475 5.2271
62.0275 3.8533 5.2104
62.1343 3.8571 5.2031
62.242 3.862 5.1909
62.3525 3.87 5.1643
62.4645 3.8796 5.1301
62.5756 3.8882 5.1009
62.6843 3.894 5.0843
62.7909 3.8974 5.0787
62.8983 3.9019 5.0685
63.0095 3.9105 5.0391
63.1234 3.922 4.996
63.2338 3.9297 4.9711
63.3359 3.9281 4.989
63.4546 3.9449 4.9214
63.5711 3.9592 4.8655
22.6662 3.064 4.8904
22.7664 3.0433 4.9964
22.8684 3.0327 5.054
22.9701 3.0204 5.1202
23.0715 3.0077 5.1885
23.173 2.995 5.2565
23.2743 2.982 5.3258
23.3758 2.9696 5.392
23.4776 2.9596 5.4475
23.5801 2.9535 5.4844
23.6831 2.9497 5.5102
23.786 2.9452 5.5399
23.8886 2.9397 5.5737
23.9913 2.9351 5.6039
24.0941 2.9305 5.6338
24.1964 2.9241 5.672
24.2983 2.9159 5.7188
24.4001 2.9071 5.7684
24.502 2.8991 5.8145
24.6043 2.8931 5.851
24.707 2.889 5.8785
24.8097 2.8848 5.9066
24.9119 2.8787 5.9434
25.0138 2.8715 5.9854
25.1161 2.866 6.0198
25.2188 2.8628 6.0432
25.3217 2.86 6.0646
25.4245 2.8571 6.0863
25.5274 2.8546 6.1067
25.6301 2.8513 6.1303
25.7326 2.8471 6.1585
25.835 2.8429 6.1864
25.9376 2.8392 6.2121
26.0403 2.8364 6.2338
26.1433 2.8345 6.2509
26.2464 2.8335 6.264
26.3496 2.8327 6.2764
26.4525 2.8306 6.2946
26.5551 2.8276 6.3169
26.6579 2.8254 6.3357
26.7609 2.8239 6.3509
26.8638 2.822 6.3685
26.9664 2.8192 6.3902
27.069 2.8166 6.4106
27.1721 2.8154 6.4247
27.2752 2.8148 6.4357
27.3783 2.8141 6.4477
27.4814 2.8132 6.4603
27.5843 2.8118 6.4752
27.6869 2.8092 6.4956
27.7893 2.8059 6.5197
27.8919 2.8034 6.5398
27.9951 2.8031 6.5499
28.0986 2.804 6.5539
28.2019 2.8044 6.5606
28.3049 2.8036 6.5731
28.4076 2.8014 6.5917
28.51 2.7985 6.614
28.6125 2.7963 6.6327
28.7156 2.7956 6.6445
28.819 2.7963 6.6497
28.9225 2.7972 6.6537
29.0256 2.7969 6.6636
29.1284 2.7956 6.6783
29.2312 2.7942 6.6933
29.3341 2.7934 6.7059
29.4372 2.7934 6.7145
29.5406 2.7941 6.7197
29.6443 2.7955 6.7215
29.7479 2.797 6.723
29.8512 2.7977 6.7286
29.9544 2.7976 6.7374
30.0576 2.7979 6.7447
30.1608 2.7979 6.7531
30.2635 2.7966 6.7679
30.3661 2.7948 6.7848
30.4689 2.7938 6.7984
30.5717 2.7928 6.8116
30.6743 2.7913 6.827
30.7773 2.791 6.8372
30.8812 2.7933 6.8351
30.9853 2.7965 6.8285
31.0889 2.798 6.8301
31.1921 2.7981 6.8386
31.295 2.7976 6.8495
31.3975 2.796 6.8658
31.4999 2.7939 6.8842
31.6026 2.7927 6.8983
31.7054 2.7921 6.91
31.8081 2.7909 6.924
31.9109 2.7901 6.9365
32.014 2.7906 6.9432
32.1173 2.791 6.9497
32.2201 2.7905 6.9609
32.3229 2.7898 6.9727
32.4258 2.7895 6.983
32.5287 2.7892 6.9932
32.6319 2.7896 6.9998
32.7354 2.791 7.0021
32.8386 2.7915 7.0087
32.9413 2.7907 7.0209
33.0444 2.791 7.0285
33.1479 2.7922 7.0315
33.2505 2.7914 7.0442
33.352 2.7875 7.0712
33.4534 2.7831 7.1007
33.5553 2.7805 7.1217
33.658 2.7797 7.134
33.7605 2.7785 7.1484
33.8622 2.7753 7.1724
33.9635 2.7713 7.2
34.0654 2.7685 7.2219
34.1678 2.7674 7.2361
34.2705 2.7668 7.2473
34.373 2.7657 7.2613
34.4751 2.764 7.2786
34.5775 2.7626 7.2936
34.6809 2.7641 7.2958
34.7856 2.7685 7.2838
34.8904 2.7733 7.2701
34.9948 2.777 7.2616
35.0988 2.7799 7.2568
35.2025 2.782 7.2561
35.3057 2.7827 7.2614
35.4087 2.783 7.2692
35.5117 2.7834 7.276
35.6146 2.7835 7.2846
35.7168 2.7818 7.3013
35.8181 2.7781 7.3278
35.9188 2.7731 7.3599
36.0195 2.7682 7.3921
36.1212 2.7656 7.4129
36.2247 2.7672 7.4146
36.3282 2.7687 7.4163
36.4288 2.7638 7.4484
36.5274 2.7542 7.5026
36.6271 2.7472 7.5441
36.7287 2.7445 7.5657
36.8316 2.7449 7.5728
36.9355 2.7476 7.5691
37.0401 2.7518 7.5587
37.1456 2.758 7.5382
37.2521 2.7664 7.5083
37.3579 2.7733 7.4849
37.462 2.7762 7.4801
37.5651 2.7769 7.4861
37.6683 2.7779 7.4902
37.7719 2.7797 7.4909
37.8749 2.7803 7.4972
37.9769 2.7788 7.513
38.0793 2.7781 7.5256
38.1832 2.7805 7.5234
38.2877 2.7844 7.5143
38.3923 2.7883 7.5051
38.497 2.7925 7.4943
38.6017 2.7967 7.4836
38.706 2.8001 7.4772
38.8099 2.8024 7.4754
38.9133 2.8039 7.4773
39.0168 2.8054 7.4796
39.1207 2.8078 7.4775
39.2249 2.8109 7.4719
39.3291 2.8139 7.467
39.4332 2.8167 7.4632
39.5375 2.8199 7.457
39.6424 2.8244 7.4453
39.7481 2.8303 7.4269
39.8542 2.8371 7.404
39.9597 2.8427 7.387
40.0634 2.8446 7.3875
40.1655 2.8432 7.4034
40.2669 2.8404 7.4254
40.3686 2.8384 7.4439
40.4719 2.8396 7.4476
40.5775 2.8452 7.4306
40.6841 2.8528 7.4042
40.7896 2.8582 7.3884
40.8929 2.8594 7.392
40.9955 2.8589 7.4032
41.0983 2.8592 7.4114
41.2012 2.8594 7.4198
41.3035 2.8585 7.433
41.406 2.8582 7.4436
41.5102 2.861 7.4398
41.6155 2.8659 7.4264
41.7207 2.8705 7.4139
41.8255 2.8745 7.4044
41.9306 2.8789 7.3932
42.0363 2.8845 7.3765
42.142 2.8901 7.3596
42.247 2.8942 7.3495
42.3516 2.8976 7.343
42.4564 2.9014 7.3346
42.5611 2.9051 7.3266
42.6649 2.907 7.3269
42.7675 2.9067 7.338
42.8698 2.9059 7.3509
42.9729 2.9064 7.3577
43.0762 2.9076 7.3618
43.1794 2.9083 7.3675
43.283 2.9099 7.3696
43.3875 2.9131 7.364
43.4925 2.9172 7.3542
43.5979 2.922 7.3413
43.704 2.9278 7.3233
43.8105 2.9345 7.3015
43.917 2.9411 7.2801
44.0228 2.9465 7.2642
44.1276 2.95 7.2573
44.2323 2.9535 7.2502
44.3389 2.9602 7.2287
44.4469 2.9691 7.1962
44.5543 2.9772 7.168
44.66 2.9823 7.1538
44.7643 2.9847 7.1518
44.8675 2.9854 7.1579
44.9699 2.9848 7.1701
45.0723 2.9842 7.1828
45.1758 2.9853 7.1868
45.2803 2.9882 7.1828
45.3851 2.9916 7.1767
45.4904 2.9958 7.1664
45.5965 3.0015 7.1494
45.7027 3.0071 7.1326
45.8078 3.011 7.124
45.9121 3.0134 7.1222
46.0167 3.0165 7.1174
46.1219 3.0203 7.109
46.2268 3.0238 7.1023
46.3324 3.0285 7.0899
46.44 3.0362 7.0633
46.5487 3.0458 7.0281
46.6575 3.0556 6.9922
46.7651 3.0634 6.9654
46.8695 3.0659 6.9634
46.9715 3.0644 6.9797
47.0743 3.0643 6.99
47.1786 3.0667 6.9884
47.2845 3.0716 6.9752
47.3916 3.0783 6.9534
47.4982 3.0844 6.9347
47.6043 3.0895 6.9205
47.7111 3.0956 6.9015
47.819 3.1035 6.8744
47.9272 3.112 6.8443
48.0353 3.1201 6.8159
48.1433 3.1281 6.7886
48.2512 3.1358 6.7621
48.3579 3.1416 6.7445
48.4623 3.144 6.7433
48.565 3.1436 6.7548
48.668 3.1437 6.7641
48.7742 3.1487 6.7505
48.8838 3.1589 6.7124
48.9937 3.1696 6.6725
49.1022 3.1779 6.6431
49.2089 3.1836 6.6264
49.3132 3.1856 6.6268
49.4156 3.1848 6.6405
49.5173 3.183 6.6584
49.6188 3.1808 6.6787
49.7192 3.177 6.7061
49.8197 3.1733 6.7331
49.9227 3.1734 6.7423
50.0281 3.1771 6.7349
50.1333 3.1805 6.7286
50.2374 3.1823 6.7303
50.3417 3.1842 6.7311
50.4471 3.1879 6.7239
50.5524 3.1915 6.7168
50.6571 3.1939 6.7151
50.7624 3.1975 6.7084
50.8695 3.2035 6.6903
50.9767 3.2098 6.6708
51.0831 3.2147 6.6576
51.1894 3.2196 6.6446
51.2963 3.2252 6.6284
51.4026 3.2301 6.6154
51.5084 3.2341 6.6065
51.6147 3.2389 6.5939
51.7216 3.2445 6.5778
51.8277 3.2489 6.5674
51.934 3.2537 6.5548
52.0438 3.2632 6.5204
52.1549 3.2746 6.477
52.2635 3.2826 6.4499
52.3708 3.2885 6.432
52.4796 3.2966 6.4042
52.5894 3.306 6.3706
52.6982 3.314 6.3429
52.8063 3.321 6.3203
52.9134 3.3266 6.304
53.0195 3.3308 6.2945
53.1256 3.3349 6.2855
53.2316 3.339 6.2763
53.3372 3.3424 6.2703
53.4418 3.3445 6.2706
53.5453 3.3451 6.2779
53.6486 3.3454 6.2862
53.7528 3.3469 6.2895
53.8574 3.349 6.2898
53.9619 3.3509 6.2909
54.0671 3.3538 6.2874
54.1741 3.3591 6.2726
54.2824 3.366 6.2505
54.3904 3.3726 6.2299
54.4975 3.378 6.2146
54.6041 3.3826 6.2034
54.7098 3.386 6.1973
54.8146 3.3883 6.1969
54.9197 3.3909 6.1947
55.0266 3.396 6.1811
55.135 3.403 6.1588
55.244 3.4106 6.1333
55.353 3.4184 6.1071
55.4617 3.4255 6.084
55.5695 3.4317 6.0654
55.6766 3.4367 6.0519
55.7828 3.4407 6.0436
55.8891 3.4448 6.0348
55.9957 3.4492 6.0241
56.1018 3.453 6.0169
56.2082 3.4572 6.0072
56.316 3.463 5.9903
56.424 3.4693 5.9713
56.5332 3.4769 5.946
56.6445 3.4872 5.908
56.7567 3.4986 5.8653
56.8676 3.5083 5.8303
56.9764 3.5154 5.8076
57.0837 3.5204 5.7941
57.1895 3.5236 5.7894
57.2925 3.5233 5.8012
57.3915 3.5181 5.8356
57.4902 3.5124 5.8721
57.5961 3.5158 5.8667
57.7085 3.5272 5.824
57.821 3.5386 5.7809
57.9306 3.5464 5.7548
58.0375 3.5509 5.7441
58.1427 3.5533 5.7432
58.2473 3.555 5.7455
58.353 3.5579 5.7421
58.4604 3.563 5.7289
58.5688 3.5693 5.71
58.6771 3.5754 5.6916
58.7853 3.5814 5.6741
58.8934 3.5872 5.6573
58.9996 3.5907 5.6513
59.1026 3.5904 5.6627
59.2052 3.5895 5.6772
59.3099 3.5913 5.6791
59.4163 3.595 5.6722
59.5227 3.5988 5.665
59.6291 3.6025 5.6581
59.7352 3.6058 5.6528
59.8403 3.608 5.653
59.947 3.6121 5.6445
60.0595 3.6229 5.6046
60.1743 3.6364 5.552
60.2855 3.6457 5.5192
60.3937 3.6514 5.5029
60.5018 3.657 5.4871
60.6105 3.6633 5.4683
60.7193 3.6696 5.4495
60.827 3.6747 5.4362
60.933 3.6777 5.4324
61.0383 3.6799 5.4323
61.145 3.6838 5.4247
61.2529 3.689 5.4109
61.3606 3.6941 5.3978
61.4698 3.7007 5.3774
61.5823 3.7111 5.3392
61.6966 3.7236 5.2915
61.8102 3.7352 5.248
61.9214 3.7441 5.2172
62.0301 3.75 5.2002
62.1378 3.7549 5.1878
62.2473 3.7617 5.1669
62.3588 3.7708 5.1351
62.4706 3.7802 5.1015
62.5813 3.7882 5.0747
62.6896 3.7936 5.06
62.7959 3.7967 5.056
62.9032 3.801 5.0467
63.0137 3.8088 5.0208
63.1255 3.8181 4.9883
63.2346 3.8243 4.97
63.3357 3.8215 4.9934
63.4543 3.8382 4.9262
22.4626 2.9765 4.7907
22.5601 2.9403 4.9695
22.6624 2.931 5.0219
22.7647 2.9221 5.0718
22.8669 2.9127 5.1244
22.9691 2.9036 5.1754
23.0712 2.8942 5.2282
23.1731 2.884 5.2844
23.2748 2.8728 5.3451
23.3763 2.8613 5.4079
23.4781 2.851 5.4647
23.5804 2.8437 5.5072
23.6832 2.8391 5.537
23.7862 2.8353 5.5633
23.8891 2.8314 5.5898
23.992 2.8273 5.6172
24.0946 2.8223 5.6493
24.1968 2.8153 5.6904
24.2987 2.8069 5.7382
24.4005 2.7985 5.786
24.5027 2.7916 5.8269
24.6052 2.7867 5.858
24.7079 2.7829 5.8846
24.8104 2.778 5.9158
24.9125 2.7715 5.9549
25.0146 2.7648 5.9945
25.117 2.76 6.0253
25.2198 2.7569 6.0483
25.3226 2.754 6.0705
25.4255 2.7511 6.0923
25.5283 2.7484 6.1135
25.6309 2.7446 6.1398
25.7332 2.7398 6.1707
25.8356 2.7356 6.1988
25.9383 2.7327 6.2208
26.0412 2.7306 6.2392
26.1441 2.7285 6.2572
26.2472 2.7272 6.2718
26.3505 2.7269 6.2815
26.4536 2.7257 6.2956
26.5563 2.723 6.3168
26.6591 2.7206 6.3364
26.762 2.719 6.3521
26.8649 2.7172 6.369
26.9676 2.7148 6.3887
27.0703 2.7124 6.4087
27.1732 2.7107 6.425
27.2764 2.7102 6.4356
27.3798 2.7105 6.443
27.4831 2.7106 6.4505
27.5864 2.7103 6.4604
27.6892 2.7088 6.4763
27.7915 2.7052 6.5015
27.8938 2.7017 6.5265
27.9969 2.7011 6.5377
28.1006 2.7024 6.5399
28.2039 2.7027 6.547
28.3068 2.7013 6.5623
28.4093 2.6988 6.5822
28.5119 2.6966 6.6012
28.6148 2.6954 6.6155
28.7177 2.6943 6.629
28.8208 2.6939 6.6396
28.9242 2.6946 6.6449
29.0274 2.6946 6.6532
29.1302 2.6933 6.6679
29.2327 2.6912 6.6864
29.3355 2.6896 6.7023
29.4387 2.69 6.7093
29.5422 2.6911 6.7125
29.6454 2.6911 6.7211
29.7485 2.6908 6.731
29.8519 2.6915 6.7361
29.9556 2.6932 6.7368
30.0593 2.6949 6.7373
30.1625 2.6952 6.7447
30.2651 2.6935 6.7611
30.3678 2.6921 6.7766
30.4709 2.6922 6.7844
30.5741 2.6922 6.7933
30.6765 2.6902 6.8112
30.7789 2.6881 6.8297
30.8821 2.6882 6.8381
30.9856 2.6894 6.8407
31.0889 2.6902 6.8457
31.1923 2.6909 6.8513
31.2954 2.6912 6.8585
31.398 2.6896 6.8744
31.5002 2.6871 6.8951
31.6028 2.6856 6.9108
31.7057 2.6853 6.9208
31.8089 2.6857 6.9279
31.9123 2.6865 6.9324
32.0156 2.6875 6.9367
32.1186 2.6872 6.9468
32.221 2.6856 6.963
32.3236 2.6843 6.9778
32.4263 2.6835 6.9902
32.5291 2.6828 7.0025
32.6322 2.6831 7.0099
32.7357 2.6844 7.0123
32.839 2.6854 7.0165
32.9421 2.6855 7.0245
33.0453 2.6861 7.0304
33.1486 2.687 7.0351
33.2511 2.6857 7.05
33.3526 2.6817 7.0776
33.454 2.6776 7.106
33.556 2.6751 7.1264
33.6587 2.6743 7.1387
33.7614 2.6737 7.1502
33.8636 2.672 7.1675
33.9655 2.6693 7.1887
34.0674 2.6666 7.2102
34.1692 2.6639 7.2317
34.2711 2.6613 7.2531
34.3731 2.6591 7.2723
34.4754 2.6576 7.2881
34.5781 2.6573 7.2981
34.682 2.6598 7.2953
34.7867 2.6644 7.2828
34.8913 2.6687 7.2714
34.9957 2.6725 7.2623
35.1002 2.6763 7.2534
35.2041 2.679 7.2498
35.3075 2.6801 7.2535
35.4106 2.6808 7.2588
35.5139 2.6818 7.2629
35.6169 2.6821 7.2705
35.7191 2.6805 7.2873
35.8202 2.6764 7.3152
35.9206 2.6706 7.3515
36.0209 2.6646 7.3886
36.1226 2.662 7.4098
36.2266 2.6649 7.4051
36.3304 2.6673 7.4028
36.4304 2.6607 7.4428
36.5283 2.6496 7.5039
36.628 2.6426 7.5456
36.7296 2.64 7.5671
36.8325 2.6403 7.5746
36.9366 2.6435 7.5683
37.0414 2.6482 7.5554
37.1469 2.6543 7.5359
37.2531 2.6621 7.5082
37.359 2.6691 7.4842
37.4636 2.6731 7.4743
37.5671 2.6747 7.4759
37.6702 2.6756 7.4808
37.7733 2.6763 7.4867
37.8758 2.6759 7.4976
37.9777 2.674 7.5155
38.0797 2.6725 7.5318
38.1829 2.6734 7.5364
38.2869 2.6762 7.5324
38.3914 2.68 7.5238
38.4964 2.6849 7.51
38.6014 2.6896 7.4968
38.7057 2.693 7.49
38.8095 2.6952 7.4889
38.9131 2.6969 7.4897
39.0167 2.6988 7.4903
39.1204 2.7009 7.4896
39.2242 2.7032 7.488
39.3282 2.7058 7.4849
39.4325 2.709 7.479
39.5372 2.713 7.4691
39.6424 2.718 7.4551
39.7482 2.7241 7.4355
39.8545 2.7313 7.4109
39.9602 2.7373 7.3919
40.064 2.7395 7.3908
40.1662 2.7384 7.4053
40.2677 2.7359 7.4263
40.3692 2.7333 7.4476
40.4716 2.7327 7.4597
40.5761 2.7362 7.4522
40.6823 2.7431 7.4293
40.7882 2.7493 7.4095
40.8925 2.7522 7.4048
40.9956 2.753 7.4105
41.0987 2.7537 7.4165
41.2017 2.7541 7.4238
41.3041 2.7535 7.436
41.4069 2.7537 7.4442
41.5114 2.7571 7.4378
41.6165 2.7617 7.4254
41.7213 2.7655 7.4171
41.8256 2.7685 7.4122
41.9301 2.7718 7.4059
42.0353 2.7764 7.3937
42.1406 2.7812 7.3804
42.2451 2.7846 7.3739
42.3493 2.7873 7.3705
42.4542 2.7913 7.3611
42.5599 2.7967 7.345
42.6651 2.8011 7.3338
42.7682 2.8019 7.3395
42.8704 2.8008 7.3538
42.9732 2.801 7.3624
43.0765 2.8021 7.3668
43.1799 2.8032 7.3709
43.2838 2.8053 7.3703
43.3883 2.8085 7.3651
43.4926 2.8113 7.3614
43.5968 2.814 7.3581
43.7019 2.8182 7.3478
43.8079 2.8239 7.3303
43.9142 2.8301 7.3105
44.02 2.8354 7.2951
44.1249 2.8394 7.2862
44.2304 2.8441 7.2733
44.3378 2.8521 7.2453
44.4462 2.8619 7.2091
44.5537 2.8701 7.1799
44.6593 2.875 7.1667
44.7633 2.877 7.1669
44.8666 2.8778 7.1723
44.9696 2.8782 7.1803
45.0726 2.8786 7.1877
45.1763 2.8802 7.1898
45.2803 2.8823 7.1894
45.3844 2.8845 7.1885
45.4896 2.8886 7.179
45.5961 2.8948 7.1596
45.7025 2.9007 7.1412
45.8075 2.9044 7.1334
45.9118 2.907 7.1311
46.0166 2.9103 7.1249
46.1217 2.914 7.1171
46.2263 2.917 7.1127
46.3313 2.9206 7.1054
46.4379 2.9268 7.0861
46.5462 2.9357 7.054
46.6556 2.9465 7.0129
46.7645 2.9564 6.9765
46.87 2.9606 6.9664
46.9726 2.9601 6.9782
47.0752 2.9597 6.9895
47.179 2.9613 6.9918
47.2845 2.9656 6.9813
47.3912 2.9717 6.9626
47.4968 2.9761 6.9517
47.6017 2.9793 6.9464
47.7084 2.9854 6.9272
47.8177 2.9954 6.8901
47.9275 3.0063 6.8488
48.0365 3.0159 6.8138
48.1445 3.0239 6.7861
48.2516 3.0304 6.7655
48.3572 3.0345 6.7557
48.4612 3.0362 6.7575
48.5647 3.0371 6.7631
48.6692 3.0395 6.7614
48.776 3.0454 6.7435
48.8846 3.0541 6.7128
48.9936 3.0634 6.679
49.1027 3.0728 6.6448
49.211 3.0809 6.6168
49.3164 3.0846 6.6093
49.4187 3.0834 6.6243
49.5198 3.0807 6.6471
49.6208 3.0778 6.6704
49.7213 3.0741 6.6971
49.8225 3.0715 6.7194
49.9264 3.0729 6.7225
50.0322 3.0773 6.7118
50.1375 3.0807 6.7057
50.2413 3.0821 6.709
50.3457 3.0843 6.7086
50.4518 3.0889 6.6968
50.5582 3.094 6.6828
50.6635 3.0974 6.6765
50.7685 3.1004 6.6724
50.8748 3.1053 6.6595
50.982 3.1114 6.6408
51.0881 3.116 6.6293
51.1933 3.1192 6.6239
51.2991 3.1233 6.6146
51.4054 3.1281 6.6021
51.5115 3.1325 6.5913
51.6172 3.1365 6.5829
51.7227 3.1401 6.5758
51.8285 3.1441 6.5671
51.9355 3.1498 6.5501
52.0444 3.1581 6.5214
52.1534 3.1666 6.4917
52.2604 3.1722 6.4753
52.3671 3.1773 6.4616
52.4765 3.1863 6.4295
52.5877 3.1976 6.3867
52.6978 3.2074 6.3507
52.807 3.2159 6.3211
52.9151 3.2228 6.2986
53.0218 3.228 6.2847
53.1282 3.2325 6.2733
53.2346 3.237 6.2626
53.3402 3.2404 6.2564
53.4444 3.242 6.2588
53.5475 3.2421 6.2687
53.6511 3.2427 6.2759
53.7563 3.2456 6.2724
53.8617 3.2488 6.2672
53.9658 3.2501 6.2713
54.0699 3.2516 6.2745
54.1762 3.2558 6.2646
54.2833 3.2613 6.2492
54.3901 3.2662 6.2364
54.4971 3.2714 6.2221
54.6043 3.2769 6.2063
54.7109 3.2816 6.1947
54.8173 3.2859 6.1845
54.9245 3.2913 6.1694
55.0322 3.2973 6.1514
55.1396 3.303 6.1351
55.2472 3.3088 6.118
55.3556 3.3156 6.0962
55.4641 3.3226 6.0737
55.5714 3.3281 6.0584
55.6772 3.3315 6.0524
55.7832 3.3352 6.0454
55.891 3.3412 6.0277
55.9995 3.348 6.0059
56.1071 3.3537 5.9893
56.2146 3.3592 5.9738
56.3223 3.365 5.9571
56.4296 3.3703 5.9424
56.5378 3.3766 5.9232
56.6472 3.3845 5.8964
56.7568 3.3926 5.869
56.866 3.4001 5.8441
56.975 3.4074 5.8206
57.0838 3.4143 5.7982
57.1911 3.4195 5.7843
57.2957 3.4212 5.7868
57.397 3.4188 5.8081
57.4971 3.4149 5.8361
57.6015 3.4163 5.8399
57.7119 3.4252 5.8087
57.824 3.4362 5.7677
57.9332 3.4435 5.7438
58.0392 3.4469 5.7381
58.1444 3.4493 5.7373
58.2501 3.4523 5.7335
58.3567 3.4563 5.725
58.4643 3.4616 5.7106
58.5728 3.4681 5.6908
58.6817 3.4749 5.6694
58.79 3.481 5.6513
58.8972 3.4857 5.6397
59.002 3.4875 5.6415
59.1041 3.4861 5.6583
59.2063 3.4848 5.6745
59.3109 3.4863 5.6778
59.4169 3.4896 5.673
59.5228 3.4927 5.6687
59.6283 3.4954 5.6666
59.7333 3.4974 5.6674
59.8378 3.4989 5.6706
59.9452 3.5038 5.6584
60.0585 3.5156 5.6134
60.1734 3.5292 5.5605
60.2853 3.5393 5.5239
60.3954 3.5472 5.4975
60.5048 3.5543 5.4749
60.6131 3.5601 5.4582
60.7205 3.5648 5.4464
60.8275 3.569 5.4372
60.9337 3.5724 5.432
61.0397 3.5754 5.4281
61.1464 3.5792 5.4207
61.2534 3.5834 5.4119
61.3606 3.5878 5.4018
61.4703 3.5951 5.378
61.5841 3.6069 5.3333
61.699 3.6201 5.2826
61.812 3.6311 5.2418
61.9229 3.6395 5.2129
62.0325 3.6465 5.191
62.142 3.6533 5.1694
62.2527 3.6615 5.1416
62.3644 3.6708 5.1091
62.4757 3.6795 5.0787
62.5855 3.6866 5.0561
62.693 3.6911 5.0456
62.799 3.6939 5.0433
62.9062 3.698 5.0346
63.0158 3.7048 5.0135
63.1254 3.7116 4.9922
63.233 3.7161 4.9816
63.3411 3.7211 4.9689
22.256 2.8727 4.7677
22.3535 2.8353 4.9524
22.456 2.827 5
22.5588 2.8208 5.0374
22.6614 2.8132 5.0815
22.7637 2.8044 5.1312
22.866 2.796 5.1793
22.9684 2.7881 5.2246
23.0708 2.7802 5.2702
23.1729 2.7713 5.3202
23.2748 2.7616 5.3743
23.3767 2.7519 5.4287
23.4787 2.7429 5.4794
23.581 2.7354 5.5229
23.6836 2.73 5.5566
23.7867 2.7268 5.58
23.8899 2.7244 5.5995
23.993 2.7213 5.6225
24.0957 2.7166 5.6529
24.198 2.7099 5.6927
24.2998 2.7015 5.7408
24.4016 2.6928 5.79
24.5037 2.6859 5.8311
24.6062 2.681 5.8624
24.7089 2.6767 5.8909
24.8112 2.6714 5.9245
24.9133 2.6647 5.9645
25.0154 2.6581 6.0038
25.1178 2.6536 6.0335
25.2207 2.6507 6.0553
25.3235 2.6477 6.0778
25.4262 2.6442 6.1025
25.5289 2.641 6.126
25.6316 2.6378 6.1497
25.7341 2.6337 6.177
25.8365 2.6297 6.2046
25.9392 2.6267 6.2271
26.0421 2.6246 6.2454
26.145 2.6225 6.2633
26.2481 2.6212 6.2781
26.3514 2.6209 6.2875
26.4545 2.6199 6.3009
26.5572 2.6172 6.3218
26.66 2.6148 6.3415
26.7629 2.6132 6.3576
26.8658 2.6116 6.3737
26.9687 2.6098 6.3906
27.0715 2.6078 6.4085
27.1744 2.606 6.4255
27.2775 2.6054 6.4366
27.3811 2.6064 6.4404
27.4849 2.608 6.4411
27.5885 2.6093 6.4434
27.6917 2.6089 6.4536
27.7939 2.605 6.4806
27.8959 2.6004 6.511
27.999 2.5997 6.5226
28.1026 2.6011 6.5247
28.2059 2.6011 6.533
28.3086 2.5991 6.5508
28.4112 2.5968 6.5704
28.514 2.5955 6.585
28.617 2.5947 6.5973
28.7198 2.593 6.6137
28.8226 2.5916 6.6291
28.9257 2.5914 6.6383
29.0289 2.5914 6.6469
29.1317 2.59 6.662
29.234 2.5871 6.6843
29.3365 2.5848 6.7035
29.4399 2.5856 6.7083
29.5435 2.5869 6.7107
29.6463 2.5859 6.7242
29.7491 2.5847 6.7387
29.8526 2.5858 6.7418
29.9568 2.589 6.7356
30.0608 2.5918 6.7308
30.164 2.5919 6.7389
30.2664 2.5895 6.7589
30.369 2.588 6.7747
30.4725 2.5891 6.7781
30.5759 2.59 6.7823
30.6785 2.5884 6.7985
30.7809 2.5861 6.8179
30.8836 2.585 6.8316
30.9865 2.5844 6.8435
31.0893 2.5835 6.856
31.1925 2.5838 6.8633
31.2959 2.5849 6.8671
31.3989 2.5844 6.878
31.5013 2.5826 6.895
31.604 2.5815 6.9091
31.7071 2.5816 6.9175
31.8105 2.5827 6.921
31.914 2.5841 6.9231
32.0172 2.5843 6.9307
32.1195 2.5822 6.9493
32.2214 2.5791 6.9728
32.3237 2.5772 6.9903
32.4265 2.5765 7.0026
32.5293 2.576 7.0136
32.6325 2.5765 7.02
32.7361 2.5781 7.0213
32.8397 2.5797 7.0224
32.9431 2.5807 7.0262
33.0463 2.5814 7.0317
33.1493 2.5814 7.0409
33.2514 2.579 7.0606
33.3528 2.575 7.0882
33.4546 2.5718 7.1122
33.5569 2.5702 7.1286
33.6596 2.5695 7.1405
33.7623 2.5691 7.1515
33.8649 2.5681 7.165
33.9671 2.5663 7.1825
34.0689 2.5634 7.2046
34.1703 2.5597 7.2312
34.2718 2.556 7.2573
34.3738 2.5539 7.2761
34.4766 2.5537 7.2861
34.5799 2.5548 7.2895
34.6839 2.5576 7.2851
34.7883 2.5615 7.276
34.8926 2.5648 7.2692
34.9966 2.5677 7.2646
35.1007 2.5707 7.2593
35.2045 2.573 7.2574
35.3079 2.5742 7.2606
35.4113 2.5755 7.2633
35.5151 2.5779 7.2611
35.6188 2.5797 7.2612
35.7211 2.5784 7.2764
35.8221 2.574 7.3063
35.9224 2.568 7.3432
36.0227 2.5622 7.3795
36.1243 2.5594 7.4017
36.2279 2.5613 7.4017
36.3312 2.5623 7.4061
36.4309 2.5554 7.4476
36.5293 2.5453 7.5038
36.6295 2.5394 7.5409
36.7309 2.5364 7.5638
36.8336 2.5362 7.5737
36.9377 2.5395 7.5674
37.0425 2.5441 7.5547
37.1476 2.5495 7.5382
37.2536 2.5566 7.514
37.3596 2.564 7.4881
37.4648 2.5694 7.4719
37.5688 2.572 7.4685
37.6718 2.5726 7.4747
37.7744 2.5723 7.4854
37.8767 2.5714 7.4987
37.9787 2.5698 7.515
38.0807 2.5683 7.5315
38.1833 2.5678 7.5427
38.2866 2.5691 7.5457
38.3908 2.5724 7.5392
38.4959 2.5775 7.5245
38.6011 2.5826 7.5096
38.7055 2.5862 7.5016
38.8093 2.5885 7.5002
38.9129 2.5903 7.5005
39.0167 2.5924 7.5
39.1202 2.5942 7.5008
39.2237 2.5956 7.503
39.3275 2.5979 7.5016
39.4321 2.6018 7.4925
39.5374 2.607 7.477
39.6429 2.6127 7.4597
39.7486 2.6188 7.4403
39.8547 2.6254 7.418
39.9602 2.6311 7.4008
40.0641 2.6334 7.3989
40.1665 2.6326 7.4119
40.268 2.6301 7.4327
40.3694 2.6276 7.454
40.4717 2.6266 7.4678
40.5755 2.6288 7.4669
40.6811 2.6345 7.4492
40.7872 2.6411 7.4273
40.8921 2.6454 7.4167
40.996 2.6475 7.4158
41.0996 2.6492 7.4171
41.2027 2.6499 7.4232
41.3052 2.6495 7.4342
41.4087 2.6509 7.4371
41.5136 2.6552 7.4261
41.6186 2.6594 7.4158
41.7223 2.6613 7.4162
41.8255 2.6622 7.4209
41.9292 2.664 7.4218
42.0339 2.6677 7.414
42.1391 2.6723 7.4018
42.2438 2.676 7.3937
42.3481 2.679 7.3889
42.453 2.683 7.3794
42.5589 2.6888 7.3618
42.6648 2.6945 7.3444
42.7687 2.6967 7.3433
42.8711 2.6961 7.3554
42.9737 2.6959 7.3658
43.0768 2.6965 7.3725
43.1803 2.6979 7.3751
43.2849 2.7011 7.3693
43.3896 2.7047 7.3621
43.4932 2.7064 7.3636
43.5966 2.7075 7.3678
43.7011 2.7106 7.3626
43.8067 2.7158 7.3475
43.9127 2.7215 7.3301
44.0181 2.7262 7.3174
44.1229 2.7298 7.3101
44.2285 2.7348 7.2963
44.3362 2.7434 7.2653
44.445 2.7539 7.2256
44.5526 2.7621 7.1963
44.6578 2.7664 7.186
44.7616 2.7681 7.1872
44.8652 2.7695 7.1904
44.969 2.7712 7.1919
45.0732 2.7736 7.1901
45.1777 2.7766 7.1855
45.282 2.7791 7.1834
45.3858 2.7808 7.1849
45.4901 2.7834 7.1821
45.5956 2.7879 7.1706
45.7014 2.793 7.1562
45.8068 2.7973 7.1455
45.9119 2.8011 7.1372
46.0171 2.8052 7.1278
46.1222 2.8089 7.12
46.2266 2.8115 7.1172
46.3308 2.8138 7.1161
46.4362 2.8181 7.1057
46.5442 2.8265 7.0756
46.6543 2.8383 7.0299
46.7638 2.8491 6.9889
46.8699 2.8544 6.9739
46.9732 2.8551 6.9799
47.0761 2.8552 6.9893
47.1798 2.8567 6.9919
47.2851 2.8606 6.9831
47.3911 2.8656 6.9696
47.4958 2.8685 6.9653
47.6001 2.8709 6.964
47.707 2.8772 6.944
47.8167 2.8879 6.9035
47.9271 2.8997 6.8579
48.0364 2.9098 6.8204
48.1445 2.9178 6.7927
48.2515 2.9242 6.772
48.3572 2.9284 6.762
48.4613 2.9304 6.7626
48.5654 2.9321 6.7644
48.6708 2.936 6.756
48.7781 2.9427 6.7343
48.8862 2.9506 6.7067
48.9945 2.9587 6.6785
49.1032 2.9675 6.6473
49.2115 2.9756 6.6191
49.317 2.9793 6.6113
49.4191 2.978 6.6272
49.5203 2.9753 6.6496
49.6219 2.9734 6.6685
49.7236 2.9716 6.6867
49.826 2.9708 6.7003
49.9304 2.973 6.7
50.0359 2.9767 6.6922
50.1403 2.979 6.6914
50.2439 2.9799 6.6968
50.3488 2.9828 6.6932
50.4559 2.9888 6.6747
50.5633 2.9953 6.6541
50.6693 2.9998 6.6429
50.7747 3.0034 6.6361
50.8812 3.0085 6.6219
50.9883 3.0146 6.6033
51.094 3.0185 6.5948
51.1983 3.0205 6.5955
51.303 3.0229 6.5943
51.4084 3.0265 6.5873
51.5144 3.0308 6.5769
51.62 3.0345 6.5693
51.7252 3.0377 6.5643
51.8315 3.0423 6.5527
51.9392 3.049 6.5313
52.0474 3.0563 6.5071
52.1546 3.0622 6.4893
52.2604 3.0662 6.4805
52.367 3.0712 6.467
52.4771 3.081 6.431
52.5886 3.0929 6.3855
52.6993 3.1035 6.3459
52.8091 3.1128 6.3123
52.9175 3.1201 6.288
53.0243 3.1253 6.2738
53.1304 3.1295 6.2641
53.2364 3.1335 6.2556
53.3418 3.1366 6.2509
53.4456 3.1376 6.2564
53.5483 3.137 6.2689
53.6522 3.1382 6.2733
53.7589 3.1431 6.2606
53.8655 3.1479 6.248
53.9698 3.1495 6.2509
54.0735 3.1503 6.2569
54.1786 3.1531 6.2539
54.2844 3.1567 6.2473
54.3903 3.1605 6.2395
54.4973 3.1657 6.2252
54.6049 3.1716 6.2076
54.7122 3.1772 6.1917
54.8201 3.1835 6.172
54.9289 3.191 6.1471
55.0369 3.1975 6.1271
55.1436 3.2021 6.1156
55.25 3.2064 6.1055
55.3577 3.2124 6.0878
55.4662 3.2193 6.0656
55.573 3.2241 6.0533
55.6779 3.2263 6.0531
55.7838 3.2299 6.0462
55.8925 3.237 6.0232
56.0019 3.245 5.996
56.1105 3.2519 5.9737
56.2185 3.2581 5.955
56.3261 3.2638 5.9384
56.4335 3.2691 5.924
56.541 3.2747 5.9081
56.6489 3.2806 5.8907
56.7564 3.286 5.8754
56.864 3.2916 5.8598
56.9726 3.2983 5.8384
57.0819 3.3059 5.8131
57.1903 3.3124 5.793
57.297 3.3167 5.7833
57.4015 3.3182 5.7863
57.5035 3.3167 5.8036
57.6063 3.3162 5.8161
57.7144 3.3222 5.7986
57.8262 3.3328 5.7593
57.9363 3.3412 5.73
58.0422 3.3445 5.7249
58.1466 3.3459 5.7286
58.2521 3.3486 5.7262
58.3591 3.3531 5.7155
58.4669 3.3587 5.6997
58.5755 3.3652 5.6795
58.6848 3.3725 5.6557
58.7937 3.3792 5.6347
58.9005 3.3835 5.6251
59.0041 3.3838 5.6338
59.1053 3.3814 5.6556
59.2066 3.3791 5.6767
59.31 3.3792 5.6863
59.4157 3.3821 5.6832
59.5225 3.3863 5.6737
59.6289 3.39 5.667
59.7331 3.391 5.6723
59.8365 3.3913 5.6816
59.9442 3.3965 5.6676
60.0574 3.4081 5.6236
60.1713 3.4206 5.5756
60.2833 3.4308 5.5385
60.3942 3.4397 5.5074
60.5047 3.448 5.479
60.6139 3.4549 5.4572
60.7218 3.4601 5.4433
60.8285 3.464 5.4356
60.9349 3.4676 5.4291
61.0426 3.4725 5.4166
61.1505 3.4777 5.4026
61.2566 3.4809 5.3983
61.3622 3.4834 5.3967
61.4714 3.4902 5.3757
61.5857 3.5026 5.3282
61.7005 3.5156 5.2778
61.8128 3.5256 5.2415
61.9237 3.5342 5.2121
62.0346 3.5426 5.1831
62.1454 3.5508 5.1552
62.2559 3.5588 5.1283
62.3668 3.5672 5.0998
62.4778 3.5756 5.071
62.5874 3.5825 5.0493
62.6946 3.5866 5.0408
62.8004 3.5892 5.0392
62.9077 3.5934 5.0299
63.0169 3.5997 5.0109
63.1251 3.6049 4.9973
63.2315 3.6081 4.9929
63.3467 3.621 4.9433
21.9478 2.7837 4.6665
22.0475 2.7575 4.7985
22.1482 2.7384 4.8971
22.2504 2.728 4.9544
22.3527 2.7189 5.0055
22.4557 2.7135 5.0393
22.5585 2.7071 5.0782
22.661 2.6992 5.1238
22.7633 2.6907 5.1718
22.8657 2.6826 5.2185
22.9681 2.6751 5.2624
23.0705 2.6674 5.3069
23.1727 2.6589 5.3554
23.2748 2.6502 5.4046
23.3771 2.6423 5.4504
23.4793 2.6347 5.4946
23.5816 2.6273 5.5379
23.6842 2.6215 5.5735
23.7873 2.6187 5.5952
23.8907 2.6174 5.6093
23.994 2.6155 5.6266
24.097 2.612 5.6513
24.1994 2.6063 5.6868
24.3013 2.5979 5.7349
24.4029 2.5884 5.7879
24.5048 2.5806 5.8331
24.6072 2.5752 5.8669
24.7098 2.5708 5.8961
24.8123 2.5656 5.929
24.9143 2.5588 5.9696
25.0162 2.5516 6.0118
25.1186 2.5467 6.0434
25.2214 2.5438 6.0655
25.3241 2.5403 6.0902
25.4265 2.5358 6.1201
25.5291 2.5322 6.1453
25.6321 2.5304 6.1621
25.735 2.5281 6.1816
25.8376 2.5244 6.2073
25.9403 2.5216 6.229
26.0433 2.5198 6.2456
26.1461 2.5176 6.2646
26.249 2.5155 6.2829
26.3521 2.5144 6.2965
26.4551 2.513 6.3117
26.5579 2.5107 6.3308
26.6608 2.5088 6.3483
26.7638 2.5073 6.3638
26.8667 2.5057 6.3797
26.9697 2.5043 6.3946
27.0726 2.5028 6.4101
27.1754 2.501 6.4273
27.2785 2.5001 6.4399
27.3822 2.5015 6.4419
27.4862 2.5042 6.4374
27.5902 2.5068 6.4337
27.6937 2.5074 6.4393
27.7961 2.504 6.4638
27.8981 2.4996 6.4931
28.001 2.4982 6.5082
28.1044 2.4986 6.5149
28.2074 2.4978 6.527
28.31 2.4955 6.5465
28.4126 2.4932 6.5659
28.5156 2.4922 6.579
28.6187 2.4918 6.5895
28.7216 2.4906 6.6034
28.8243 2.4891 6.6194
28.9272 2.4879 6.6336
29.0301 2.4868 6.6471
29.1327 2.4849 6.6645
29.235 2.4821 6.6863
29.3377 2.4804 6.703
29.4411 2.4812 6.7081
29.5444 2.4817 6.714
29.6471 2.4802 6.7297
29.7499 2.479 6.744
29.8535 2.4805 6.7455
29.9578 2.484 6.7377
30.0619 2.487 6.7322
30.165 2.487 6.7407
30.2673 2.4843 6.762
30.3699 2.4826 6.7786
30.4735 2.4841 6.7801
30.5772 2.4861 6.7797
30.6803 2.4859 6.7893
30.7829 2.4844 6.8048
30.8854 2.4826 6.8222
30.9878 2.4803 6.8416
31.0903 2.4786 6.8583
31.1934 2.4789 6.8656
31.2971 2.4804 6.8669
31.4004 2.4812 6.872
31.5034 2.4811 6.8812
31.6065 2.481 6.8904
31.7095 2.481 6.8992
31.8127 2.4813 6.9061
31.916 2.482 6.9117
32.0187 2.4811 6.9249
32.1204 2.4774 6.9509
32.222 2.4732 6.9795
32.3242 2.4709 6.9989
32.4269 2.4701 7.0116
32.5297 2.4696 7.0227
32.633 2.4704 7.0279
32.7368 2.4727 7.0255
32.8407 2.4752 7.0226
32.9443 2.4768 7.0241
33.0475 2.4774 7.0297
33.1502 2.4765 7.0428
33.2519 2.4732 7.0674
33.3533 2.4689 7.0962
33.4552 2.4663 7.1175
33.5577 2.4651 7.1319
33.6603 2.4641 7.1453
33.7628 2.463 7.1593
33.8653 2.462 7.1733
33.9676 2.4605 7.1889
34.0695 2.4578 7.2106
34.1709 2.454 7.2375
34.2725 2.4508 7.2611
34.375 2.4499 7.2743
34.4783 2.4509 7.2785
34.5818 2.4526 7.2794
34.6856 2.4549 7.2774
34.7897 2.4578 7.2725
34.8936 2.4605 7.269
34.9973 2.4625 7.2682
35.1009 2.4644 7.2683
35.2044 2.4659 7.2701
35.3077 2.4668 7.2747
35.4111 2.4682 7.2773
35.5153 2.4714 7.271
35.6195 2.4745 7.2651
35.7219 2.4736 7.2785
35.8229 2.4693 7.3079
35.9237 2.4643 7.3402
36.0245 2.4598 7.3706
36.1261 2.4569 7.3931
36.2288 2.4566 7.4037
36.3311 2.4555 7.4178
36.4314 2.4497 7.454
36.5311 2.4428 7.4955
36.6318 2.4382 7.5264
36.733 2.4346 7.5523
36.8352 2.4333 7.5676
36.939 2.4359 7.5642
37.0436 2.44 7.554
37.1482 2.4442 7.5429
37.2538 2.4505 7.5223
37.3602 2.4587 7.4927
37.466 2.4656 7.4695
37.5703 2.4689 7.4629
37.6731 2.4691 7.4712
37.7753 2.4678 7.4862
37.8777 2.467 7.4992
37.9802 2.4666 7.5102
38.0824 2.4654 7.5248
38.1844 2.4639 7.5409
38.2872 2.4639 7.5499
38.3912 2.4668 7.5457
38.4962 2.4717 7.5317
38.6014 2.4769 7.5162
38.706 2.4809 7.5067
38.8099 2.4833 7.5041
38.9137 2.4855 7.5029
39.0175 2.4878 7.5013
39.1208 2.489 7.5048
39.2238 2.4896 7.5114
39.3275 2.4915 7.5113
39.4322 2.4958 7.5004
39.5377 2.5013 7.4835
39.6433 2.5073 7.4647
39.7491 2.5133 7.4453
39.8548 2.5194 7.4261
39.96 2.5244 7.4118
40.064 2.5268 7.4096
40.1663 2.526 7.4224
40.2678 2.5236 7.4432
40.3696 2.5216 7.4616
40.4723 2.5216 7.4711
40.576 2.5236 7.4709
40.6813 2.5286 7.4567
40.7874 2.5351 7.435
40.8925 2.5398 7.4222
40.9967 2.5426 7.4183
41.1006 2.545 7.4165
41.2036 2.5455 7.4231
41.3061 2.5451 7.4346
41.41 2.5472 7.4339
41.5153 2.5522 7.4195
41.6201 2.5562 7.4103
41.7232 2.5569 7.4162
41.8257 2.5565 7.4274
41.9288 2.5571 7.434
42.033 2.5598 7.4304
42.1383 2.5647 7.4167
42.2439 2.5702 7.4005
42.3492 2.5749 7.3874
42.4541 2.5788 7.3786
42.5588 2.5824 7.3708
42.6641 2.5871 7.3583
42.7687 2.5906 7.3509
42.8719 2.5914 7.3569
42.9743 2.5909 7.3687
43.077 2.5908 7.3785
43.1808 2.5927 7.3789
43.2861 2.5973 7.3669
43.391 2.6012 7.3578
43.4942 2.602 7.3633
43.5972 2.6026 7.3702
43.7018 2.6059 7.3641
43.8074 2.611 7.3494
43.9128 2.6157 7.3367
44.0176 2.6192 7.3296
44.1221 2.6223 7.3244
44.2275 2.627 7.3119
44.3352 2.6357 7.2807
44.4443 2.6465 7.2392
44.5516 2.6543 7.2119
44.6563 2.6578 7.2051
44.7602 2.6597 7.2057
44.8643 2.662 7.2045
44.969 2.6653 7.1986
45.0745 2.6698 7.1868
45.1802 2.6748 7.1726
45.285 2.6782 7.1664
45.3884 2.6791 7.1714
45.4915 2.6797 7.1784
45.5955 2.6818 7.1782
45.7007 2.6859 7.1684
45.8067 2.6912 7.1531
45.9127 2.6965 7.1376
46.0183 2.7011 7.1255
46.1231 2.7045 7.1192
46.2273 2.7067 7.1185
46.3312 2.7085 7.1198
46.436 2.7119 7.1135
46.5436 2.7196 7.0868
46.6533 2.7308 7.0438
46.7623 2.7408 7.0064
46.8687 2.7464 6.9895
46.9728 2.7485 6.9892
47.0763 2.7496 6.9937
47.1805 2.7518 6.9934
47.286 2.7561 6.9829
47.3917 2.7606 6.9713
47.4959 2.7627 6.971
47.6 2.7647 6.9715
47.7064 2.7703 6.9547
47.8155 2.78 6.9187
47.9257 2.7916 6.8742
48.0352 2.8019 6.8353
48.1433 2.81 6.8073
48.2506 2.8167 6.7853
48.3566 2.8216 6.772
48.4611 2.824 6.7704
48.5656 2.8264 6.769
48.6719 2.8316 6.7542
48.78 2.8395 6.7269
48.8884 2.8478 6.6976
48.9962 2.8552 6.6727
49.1037 2.8621 6.65
49.2109 2.8686 6.6294
49.3161 2.8719 6.6236
49.4188 2.8715 6.6354
49.5211 2.8705 6.6498
49.6243 2.871 6.6575
49.7276 2.8716 6.6645
49.8309 2.872 6.6721
49.9349 2.8736 6.6744
50.0392 2.8757 6.6747
50.1427 2.8765 6.6804
50.2464 2.8776 6.6852
50.352 2.8816 6.6765
50.4598 2.8886 6.6535
50.5675 2.8955 6.6307
50.6738 2.9005 6.6174
50.7799 2.905 6.606
50.887 2.9109 6.5882
50.9939 2.9166 6.5713
51.0993 2.9202 6.5645
51.2038 2.9223 6.5642
51.3081 2.9242 6.5654
51.4127 2.9266 6.564
51.5181 2.93 6.5578
51.6232 2.9331 6.5532
51.7281 2.9359 6.5503
51.8344 2.9405 6.5384
51.9424 2.9476 6.515
52.0507 2.955 6.4904
52.1575 2.9604 6.475
52.2632 2.9642 6.4673
52.3701 2.9695 6.4522
52.4798 2.9789 6.418
52.591 2.9902 6.3752
52.7015 3.0005 6.3368
52.811 3.0095 6.3048
52.9194 3.0168 6.2806
53.0261 3.0217 6.2672
53.1317 3.0252 6.2608
53.2372 3.0286 6.2553
53.3424 3.0314 6.2518
53.4462 3.0324 6.2571
53.5491 3.0322 6.2684
53.6537 3.0342 6.2688
53.7609 3.0397 6.253
53.8676 3.0447 6.2399
53.9723 3.0468 6.2399
54.0766 3.0485 6.2421
54.1814 3.0507 6.2417
54.286 3.0528 6.242
54.3915 3.056 6.2372
54.4986 3.0614 6.2218
54.6064 3.0676 6.2027
54.7145 3.0742 6.1821
54.8235 3.082 6.1557
54.9325 3.0897 6.1298
55.04 3.0955 6.1127
55.1463 3.0996 6.1035
55.2523 3.1033 6.0964
55.3592 3.1082 6.0835
55.4671 3.1144 6.0645
55.574 3.1193 6.0517
55.6796 3.1225 6.0471
55.7864 3.1271 6.0354
55.895 3.1342 6.0126
56.0037 3.1413 5.9892
56.1118 3.1476 5.9701
56.2198 3.1537 5.9515
56.3279 3.1599 5.9326
56.4354 3.1655 5.9169
56.5422 3.1701 5.9054
56.6488 3.1743 5.8957
56.7556 3.1789 5.8848
56.8629 3.184 5.8709
56.971 3.1901 5.8525
57.0796 3.1969 5.831
57.1882 3.2036 5.8097
57.2967 3.2102 5.7894
57.4037 3.2149 5.7775
57.5077 3.2158 5.7832
57.6109 3.2158 5.7935
57.7177 3.2201 5.7836
57.8286 3.2296 5.7495
57.9389 3.2383 5.719
58.0447 3.2414 5.7151
58.1478 3.2412 5.7259
58.253 3.2435 5.7254
58.3606 3.2488 5.7108
58.4687 3.2547 5.6935
58.5768 3.2606 5.6764
58.6853 3.2669 5.6571
58.7938 3.2732 5.638
58.9005 3.2773 5.6291
59.0039 3.2775 5.6385
59.105 3.2749 5.6613
59.2058 3.2719 5.6854
59.3083 3.271 5.6998
59.4139 3.2738 5.697
59.5222 3.2797 5.6797
59.6297 3.2848 5.6664
59.7335 3.2854 5.6738
59.8363 3.2849 5.6864
59.9434 3.2894 5.6759
60.0553 3.2995 5.6389
60.1683 3.311 5.5958
60.2801 3.3209 5.5599
60.3908 3.3296 5.5296
60.5015 3.3382 5.4997
60.6126 3.3471 5.4683
60.7226 3.3548 5.4426
60.8297 3.3592 5.4324
60.9359 3.3625 5.4276
61.0439 3.3679 5.4128
61.1526 3.374 5.3945
61.2587 3.3771 5.3903
61.3639 3.3791 5.3913
61.4729 3.3856 5.3715
61.5867 3.3975 5.3262
61.7007 3.4096 5.2804
61.8125 3.4191 5.2464
61.9239 3.4282 5.2144
62.0356 3.4375 5.1813
62.1461 3.4454 5.1549
62.2555 3.452 5.1342
62.3659 3.4598 5.1083
62.4773 3.4688 5.0769
62.5877 3.4764 5.0517
62.6952 3.4809 5.0412
62.8014 3.4839 5.0376
62.9094 3.4889 5.0246
63.0192 3.496 5.0022
63.1272 3.5008 4.99
63.2319 3.5022 4.9943
63.3394 3.5066 4.984
21.7419 2.6845 4.6209
21.8428 2.6654 4.7197
21.9447 2.6525 4.7893
22.0454 2.6332 4.8891
22.1477 2.6233 4.9442
22.2501 2.6143 4.9951
22.3529 2.6075 5.0355
22.4559 2.6021 5.0694
22.5587 2.596 5.1064
22.6612 2.5882 5.1514
22.7635 2.5798 5.1997
22.8658 2.5713 5.2482
22.9681 2.563 5.2959
23.0703 2.5547 5.3431
23.1726 2.5467 5.3896
23.275 2.5396 5.4315
23.3776 2.5336 5.4682
23.4801 2.5272 5.5069
23.5824 2.5199 5.5494
23.6849 2.5139 5.5862
23.7879 2.5108 5.6092
23.8914 2.5096 5.6229
23.9949 2.5088 5.6353
24.0982 2.5068 5.6528
24.2009 2.5023 5.6826
24.3028 2.4943 5.729
24.4043 2.4845 5.7834
24.5061 2.476 5.8321
24.6083 2.4699 5.8695
24.7109 2.4652 5.9
24.8133 2.4602 5.9321
24.9154 2.4535 5.9723
25.0172 2.4459 6.0165
25.1193 2.44 6.0525
25.2219 2.4361 6.0793
25.3245 2.432 6.1071
25.4269 2.4274 6.1373
25.5297 2.4247 6.1587
25.633 2.4241 6.1697
25.7361 2.4228 6.1843
25.8388 2.42 6.206
25.9418 2.4183 6.2225
26.045 2.4172 6.2358
26.1477 2.4144 6.2575
26.2502 2.4108 6.2832
26.353 2.4083 6.3032
26.4559 2.4066 6.3198
26.5588 2.4049 6.3361
26.6619 2.4037 6.3504
26.7649 2.4023 6.3653
26.8678 2.4006 6.3817
26.9708 2.3996 6.3951
27.074 2.399 6.4065
27.177 2.3976 6.4213
27.28 2.3967 6.4344
27.3836 2.3976 6.4384
27.4875 2.3998 6.4363
27.5914 2.402 6.4344
27.6949 2.4027 6.4395
27.7977 2.401 6.456
27.9002 2.3982 6.4779
28.003 2.3965 6.4946
28.106 2.3955 6.5075
28.2088 2.394 6.5234
28.3114 2.3918 6.5425
28.4141 2.3896 6.5611
28.5169 2.3884 6.5754
28.6201 2.3881 6.5855
28.7231 2.3875 6.5968
28.8259 2.3861 6.6121
28.9286 2.3842 6.6296
29.0311 2.382 6.6486
29.1335 2.3794 6.6695
29.236 2.3772 6.6885
29.339 2.3763 6.7009
29.4422 2.3766 6.7082
29.5452 2.3762 6.7189
29.6479 2.3747 6.7347
29.7508 2.3739 6.7468
29.8544 2.3753 6.7488
29.9584 2.378 6.7449
30.0622 2.3801 6.7433
30.1654 2.3803 6.7509
30.268 2.3787 6.7675
30.3709 2.3777 6.7807
30.4746 2.3795 6.7809
30.5786 2.3822 6.7764
30.6822 2.3839 6.7775
30.7852 2.3834 6.7884
30.8874 2.3806 6.8103
30.9893 2.3771 6.8355
31.0918 2.3753 6.8527
31.1951 2.3759 6.8585
31.2987 2.3776 6.8594
31.4023 2.3791 6.8608
31.5059 2.3806 6.8624
31.6094 2.3818 6.8655
31.7124 2.3815 6.8756
31.815 2.3802 6.8907
31.9176 2.3791 6.9045
32.02 2.3773 6.9218
32.1217 2.3734 6.9489
32.2231 2.369 6.9784
32.3252 2.3665 6.9992
32.4278 2.3651 7.0143
32.5304 2.3642 7.0275
32.6338 2.3652 7.0317
32.7379 2.3684 7.0251
32.8421 2.3714 7.0195
32.9456 2.373 7.021
33.0488 2.3735 7.0273
33.1514 2.3724 7.0414
33.253 2.3689 7.0669
33.3543 2.3645 7.0966
33.456 2.3612 7.1208
33.5581 2.359 7.1399
33.6602 2.3568 7.1593
33.7624 2.3549 7.1773
33.8649 2.3538 7.1911
33.9675 2.3532 7.203
34.0697 2.3514 7.2203
34.1714 2.3483 7.244
34.2733 2.3459 7.264
34.3762 2.346 7.2726
34.4797 2.3475 7.274
34.5833 2.3492 7.2749
34.6869 2.3511 7.2752
34.7908 2.3536 7.2719
34.8947 2.3563 7.2683
34.9983 2.3581 7.2686
35.1017 2.3594 7.2716
35.2049 2.3602 7.2765
35.308 2.3607 7.2833
35.4112 2.3615 7.2882
35.5151 2.3641 7.285
35.619 2.3665 7.2825
35.7214 2.3655 7.2962
35.8228 2.3622 7.3211
35.9241 2.3587 7.3465
36.0256 2.3554 7.3709
36.1272 2.3527 7.3928
36.2293 2.3512 7.4089
36.3313 2.3493 7.4267
36.4323 2.3451 7.4555
36.533 2.3405 7.4864
36.6341 2.3368 7.5129
36.7352 2.333 7.5395
36.8371 2.3311 7.5576
36.9408 2.3333 7.5565
37.0452 2.337 7.5481
37.1493 2.3401 7.5422
37.2544 2.3453 7.5267
37.3609 2.3539 7.4955
37.4673 2.3617 7.4673
37.5718 2.3656 7.4582
37.6745 2.3654 7.468
37.7763 2.3636 7.486
37.8788 2.363 7.4978
37.982 2.3639 7.5026
38.0846 2.3637 7.5126
38.1864 2.3617 7.5311
38.2886 2.3607 7.5452
38.3924 2.363 7.5434
38.4974 2.3678 7.5299
38.6025 2.3729 7.5148
38.7072 2.3769 7.505
38.8113 2.3798 7.5006
38.9154 2.3828 7.4957
39.0193 2.3853 7.4929
39.1222 2.3855 7.5011
39.2245 2.3848 7.5135
39.328 2.3863 7.5159
39.4326 2.3901 7.5069
39.5377 2.395 7.4931
39.6431 2.4005 7.4761
39.7489 2.4066 7.4565
39.8545 2.4125 7.4381
39.9596 2.4172 7.4254
40.0634 2.4193 7.4243
40.1657 2.4185 7.4375
40.2674 2.4165 7.4563
40.3697 2.4157 7.4693
40.4729 2.4165 7.4745
40.5766 2.4186 7.4741
40.6816 2.423 7.4623
40.7876 2.4293 7.4419
40.8926 2.4338 7.43
40.9968 2.4367 7.4257
41.101 2.4395 7.4217
41.2042 2.4405 7.4264
41.3066 2.4398 7.4388
41.41 2.4412 7.4415
41.515 2.4454 7.4311
41.6199 2.4495 7.4211
41.7235 2.4512 7.4223
41.8263 2.4513 7.4312
41.929 2.4514 7.4402
42.0327 2.4533 7.4406
42.1383 2.4586 7.425
42.2449 2.4658 7.4003
42.3511 2.4723 7.3791
42.4558 2.4758 7.3719
42.5593 2.4772 7.3747
42.6638 2.4805 7.3685
42.769 2.4851 7.3564
42.8728 2.487 7.3567
42.9751 2.4862 7.3699
43.0775 2.4856 7.3821
43.1816 2.488 7.3801
43.2869 2.4927 7.3676
43.3913 2.4956 7.3632
43.4942 2.4961 7.3704
43.5979 2.4977 7.3724
43.7032 2.5023 7.36
43.8089 2.5077 7.3443
43.9137 2.5113 7.3366
44.0179 2.5138 7.3345
44.1224 2.5168 7.3294
44.2282 2.5222 7.3138
44.336 2.531 7.2819
44.4445 2.5409 7.2446
44.5509 2.5472 7.2245
44.6553 2.5501 7.2204
44.7597 2.5527 7.2174
44.8646 2.5564 7.2096
44.97 2.5608 7.1982
45.0761 2.5665 7.1813
45.1826 2.5728 7.1612
45.2876 2.5766 7.1527
45.3907 2.577 7.1604
45.493 2.5762 7.1736
45.5961 2.5767 7.1807
45.7009 2.5802 7.1741
45.8073 2.5861 7.1555
45.914 2.5926 7.1346
46.0198 2.5976 7.1207
46.1242 2.6003 7.1176
46.2279 2.6017 7.1208
46.3318 2.6036 7.1215
46.437 2.6075 7.1124
46.5443 2.6147 7.0881
46.6528 2.6239 7.0545
46.7605 2.6319 7.0266
46.8667 2.6373 7.011
46.9718 2.6409 7.0034
47.0766 2.644 6.9985
47.1819 2.648 6.9896
47.2879 2.6531 6.9751
47.3932 2.657 6.9666
47.4966 2.6578 6.9722
47.6001 2.6589 6.9771
47.7059 2.6635 6.9651
47.8143 2.6722 6.9338
47.9243 2.6835 6.8905
48.034 2.6941 6.8503
48.1422 2.7022 6.8215
48.2493 2.7088 6.8003
48.3553 2.7135 6.7878
48.46 2.7163 6.7846
48.5652 2.7198 6.7777
48.6726 2.7267 6.7553
48.7812 2.7354 6.7239
48.8898 2.744 6.6934
48.9973 2.7509 6.6705
49.1038 2.7564 6.6547
49.2099 2.761 6.6425
49.3149 2.7641 6.6379
49.4187 2.7654 6.6418
49.5228 2.7671 6.6434
49.6278 2.7702 6.6387
49.7322 2.7724 6.6382
49.8357 2.7731 6.6445
49.9391 2.7738 6.6512
50.0425 2.7745 6.6577
50.1461 2.7755 6.6631
50.2507 2.778 6.6612
50.3569 2.7827 6.6489
50.4641 2.789 6.629
50.5712 2.7949 6.6111
50.6773 2.7995 6.5994
50.7835 2.8043 6.5867
50.8904 2.8098 6.5706
50.9968 2.8148 6.5572
51.1026 2.819 6.5474
51.2081 2.8225 6.5407
51.3128 2.8249 6.5392
51.4172 2.827 6.5393
51.5219 2.8295 6.5377
51.6261 2.8312 6.5393
51.7303 2.833 6.5412
51.8364 2.8374 6.5303
51.9449 2.8451 6.5041
52.0537 2.8532 6.4758
52.1608 2.859 6.4586
52.2666 2.8629 6.4501
52.3734 2.8682 6.4353
52.4825 2.8766 6.4058
52.5928 2.8866 6.3688
52.7025 2.8958 6.3355
52.8117 2.9044 6.3054
52.9206 2.9124 6.2779
53.0276 2.9178 6.2626
53.1328 2.9206 6.2592
53.2376 2.9231 6.2577
53.3424 2.9253 6.257
53.4464 2.9266 6.261
53.5502 2.9277 6.2663
53.6556 2.9308 6.2614
53.7628 2.9363 6.2457
53.8691 2.9407 6.2353
53.974 2.9431 6.234
54.0788 2.9454 6.2331
54.1835 2.9476 6.2329
54.2877 2.9491 6.2359
54.393 2.952 6.2322
54.5003 2.9576 6.2162
54.6085 2.9644 6.1944
54.7173 2.9719 6.1691
54.8266 2.98 6.1413
54.9347 2.9865 6.121
55.0414 2.9913 6.1088
55.1479 2.9957 6.0983
55.254 2.9995 6.0903
55.3601 3.0033 6.0825
55.4669 3.0081 6.0702
55.5742 3.0135 6.0552
55.6816 3.0191 6.0392
55.7898 3.0255 6.019
55.8984 3.0324 5.9967
56.006 3.0382 5.9801
56.1129 3.0429 5.9681
56.2205 3.0486 5.9515
56.3291 3.0554 5.9296
56.4368 3.0612 5.9127
56.5424 3.0642 5.9089
56.6474 3.0666 5.908
56.7542 3.0711 5.8969
56.8621 3.0769 5.8798
56.9695 3.0822 5.8651
57.0767 3.0872 5.8522
57.1851 3.0936 5.8321
57.2947 3.1016 5.8051
57.4034 3.1084 5.7834
57.5095 3.1119 5.7773
57.6142 3.1137 5.779
57.7211 3.1183 5.7677
57.8314 3.1269 5.7376
57.941 3.1347 5.7114
58.0457 3.1365 5.7131
58.1482 3.1356 5.7275
58.2537 3.1383 5.7254
58.3618 3.1442 5.7081
58.4691 3.1491 5.6952
58.5755 3.153 5.6875
58.6825 3.1574 5.6769
58.79 3.1626 5.6631
58.8964 3.1663 5.6557
59 3.1667 5.6644
59.1014 3.1644 5.6853
59.2026 3.162 5.7068
59.3057 3.1619 5.718
59.4119 3.1654 5.712
59.5205 3.1716 5.6929
59.6279 3.1766 5.6798
59.7319 3.1774 5.6864
59.8354 3.1778 5.6952
59.9425 3.1823 5.6843
60.0536 3.1915 5.6516
60.1661 3.2022 5.6118
60.2776 3.2118 5.5772
60.3879 3.2199 5.5495
60.4987 3.2287 5.5188
60.6115 3.2397 5.4779
60.7233 3.2495 5.4425
60.8309 3.2544 5.4299
60.9362 3.2566 5.4298
61.0426 3.2601 5.4238
61.1504 3.2652 5.4103
61.2574 3.2695 5.4008
61.3645 3.2737 5.3916
61.4745 3.2812 5.3667
61.5871 3.2918 5.3276
61.6997 3.3022 5.2894
61.8113 3.3115 5.2562
61.923 3.3209 5.2227
62.0346 3.33 5.1904
62.1444 3.3372 5.1673
62.2533 3.3434 5.1488
62.3639 3.3513 5.1222
62.476 3.361 5.0875
62.5872 3.3695 5.0578
62.6957 3.3751 5.0421
62.8029 3.3793 5.033
62.9117 3.3852 5.0162
63.0221 3.3928 4.9909
63.1317 3.3995 4.97
63.2418 3.4067 4.9467
63.3521 3.4142 4.9221
21.5362 2.5868 4.5688
21.6342 2.5498 4.7526
21.7376 2.5455 4.7813
21.8404 2.5383 4.824
21.9427 2.5281 4.8804
22.0447 2.5164 4.9441
22.1471 2.5071 4.9964
22.2498 2.4998 5.0395
22.3528 2.4946 5.0722
22.456 2.4908 5.0988
22.559 2.4855 5.1319
22.6615 2.4779 5.1765
22.7637 2.469 5.2268
22.8659 2.46 5.278
22.968 2.4509 5.3293
23.0702 2.4423 5.3784
23.1725 2.435 5.4213
23.2753 2.4297 5.455
23.3782 2.4254 5.4834
23.4809 2.4202 5.5165
23.5833 2.4135 5.5564
23.6858 2.4074 5.5936
23.7887 2.4034 5.621
23.8919 2.4013 5.6393
23.9954 2.4005 5.6512
24.099 2.3999 5.6624
24.202 2.397 5.6846
24.3042 2.3902 5.7251
24.4059 2.3813 5.7758
24.5077 2.3727 5.825
24.6097 2.3655 5.8674
24.712 2.3597 5.9033
24.8143 2.3543 5.9375
24.9164 2.3479 5.9762
25.0183 2.3406 6.0189
25.1203 2.3341 6.058
25.2226 2.3291 6.0903
25.3251 2.325 6.1183
25.4279 2.3219 6.1414
25.531 2.3203 6.157
25.6342 2.3197 6.1685
25.7373 2.3183 6.1835
25.8403 2.3166 6.2
25.9436 2.316 6.2109
26.0469 2.3153 6.223
26.1494 2.3119 6.2475
26.2517 2.3074 6.2772
26.3543 2.3042 6.3005
26.4572 2.3025 6.3171
26.5603 2.3014 6.3308
26.6634 2.3004 6.3439
26.7663 2.2988 6.36
26.8692 2.2969 6.3776
26.9723 2.2962 6.3892
27.0759 2.297 6.394
27.1793 2.2974 6.4004
27.2824 2.2967 6.4122
27.3856 2.2961 6.4235
27.4889 2.2963 6.4313
27.5924 2.2969 6.4367
27.6959 2.2974 6.4428
27.799 2.2971 6.453
27.902 2.2959 6.4669
28.0049 2.2945 6.4823
28.1077 2.2927 6.4993
28.2103 2.2906 6.5176
28.313 2.2888 6.535
28.4158 2.287 6.5517
28.5186 2.2856 6.5672
28.6216 2.2846 6.5803
28.7245 2.2835 6.5941
28.8271 2.2817 6.6114
28.9297 2.2796 6.63
29.0322 2.2773 6.6495
29.1346 2.2746 6.6706
29.2371 2.2725 6.689
29.3401 2.2717 6.7016
29.4431 2.2714 6.7116
29.546 2.2706 6.7241
29.6488 2.2694 6.7384
29.7519 2.2691 6.7483
29.8553 2.2701 6.7522
29.9589 2.2714 6.7547
30.0623 2.2724 6.7586
30.1657 2.2731 6.7639
30.2689 2.2734 6.7712
30.3723 2.2741 6.7764
30.4761 2.2763 6.7746
30.5803 2.2794 6.7684
30.6843 2.2821 6.7645
30.7876 2.2826 6.7706
30.8897 2.2799 6.7925
30.9915 2.2758 6.8205
31.0938 2.2736 6.8395
31.197 2.2739 6.8469
