35.7298 -37.4213 -75.6835
35.906 -37.407 -75.8212
36.0847 -37.3916 -75.9706
36.2618 -37.377 -76.1109
36.4323 -37.3659 -76.2134
36.6002 -37.3561 -76.3011
36.7674 -37.3467 -76.3842
36.9351 -37.3372 -76.469
37.1039 -37.3272 -76.5591
37.2708 -37.3182 -76.6387
37.4351 -37.3105 -76.7035
37.5997 -37.3027 -76.769
37.7659 -37.2942 -76.843
37.9315 -37.2861 -76.9126
38.0931 -37.2799 -76.9609
38.253 -37.2745 -76.9997
38.4262 -37.2629 -77.1078
38.6253 -37.239 -77.3493
38.8058 -37.2241 -77.4928
38.9772 -37.2135 -77.5883
10.8899 -37.8469 -75.5652
11.0194 -37.8745 -75.2408
11.1524 -37.8964 -74.9787
11.2932 -37.907 -74.8438
11.434 -37.9173 -74.7131
11.5731 -37.9296 -74.5583
11.7127 -37.9411 -74.4133
11.8533 -37.9509 -74.2881
11.9955 -37.9583 -74.1881
12.139 -37.9638 -74.11
12.2835 -37.9679 -74.0483
12.4301 -37.9692 -74.0173
12.5794 -37.967 -74.0255
12.73 -37.9632 -74.0512
12.8801 -37.96 -74.0704
13.0284 -37.9592 -74.0631
13.1746 -37.9608 -74.0284
13.3207 -37.9626 -73.9916
13.4676 -37.9633 -73.9675
13.6135 -37.9652 -73.9287
13.759 -37.9675 -73.8874
13.9059 -37.9681 -73.8633
14.0539 -37.9674 -73.8543
14.2028 -37.9657 -73.8576
14.353 -37.9625 -73.8764
14.5035 -37.959 -73.899
14.6523 -37.9573 -73.9003
14.7997 -37.9573 -73.8836
14.9471 -37.9573 -73.8668
15.0942 -37.9576 -73.8473
15.2405 -37.9587 -73.818
15.3866 -37.9599 -73.7875
15.5333 -37.9605 -73.7638
15.68 -37.9612 -73.74
15.826 -37.9624 -73.7096
15.9719 -37.9638 -73.6774
16.1184 -37.9644 -73.6531
16.2655 -37.9645 -73.6357
16.4119 -37.9652 -73.6112
16.5568 -37.9674 -73.5693
16.7017 -37.9695 -73.5288
16.8493 -37.9689 -73.5181
16.9985 -37.9669 -73.5243
17.1469 -37.9655 -73.5231
17.2953 -37.9642 -73.5202
17.4444 -37.9621 -73.5262
17.5935 -37.9602 -73.5311
17.7416 -37.9591 -73.5256
17.8891 -37.9587 -73.5138
18.0359 -37.9588 -73.4954
18.1821 -37.9595 -73.4703
18.3284 -37.96 -73.4478
18.4755 -37.9598 -73.4321
18.623 -37.9592 -73.4217
18.7702 -37.959 -73.4078
18.9162 -37.9597 -73.3821
19.0616 -37.961 -73.3505
19.2078 -37.9615 -73.3277
19.3548 -37.9613 -73.3126
19.501 -37.9618 -73.2899
19.6468 -37.9626 -73.2638
19.7938 -37.9623 -73.2496
19.9418 -37.9613 -73.2444
20.09 -37.96 -73.2415
20.2386 -37.9584 -73.2413
20.3869 -37.957 -73.2398
20.5337 -37.9569 -73.2233
20.6795 -37.9576 -73.1986
20.8271 -37.9569 -73.1895
20.978 -37.9533 -73.2112
21.1318 -37.9476 -73.258
21.2869 -37.9409 -73.3151
21.4406 -37.9353 -73.3598
21.5939 -37.9301 -73.4002
21.7481 -37.9242 -73.4479
21.9009 -37.9195 -73.483
22.0511 -37.9168 -73.4951
22.1991 -37.9159 -73.488
22.3455 -37.9162 -73.4672
22.4915 -37.9168 -73.4431
22.6386 -37.9165 -73.4285
22.7865 -37.9156 -73.4212
22.933 -37.9157 -73.4017
23.077 -37.9177 -73.3621
23.2211 -37.9196 -73.3236
23.369 -37.9187 -73.316
23.5215 -37.9144 -73.3463
23.6741 -37.9101 -73.3767
23.8204 -37.9103 -73.3562
23.962 -37.9139 -73.2989
24.1025 -37.9182 -73.2334
24.2426 -37.9228 -73.1648
24.3824 -37.9274 -73.095
24.5229 -37.9316 -73.031
24.6651 -37.9345 -72.9814
24.8097 -37.9357 -72.9501
24.9563 -37.9355 -72.9343
25.1033 -37.935 -72.9222
25.249 -37.9354 -72.9004
25.3932 -37.9368 -72.867
25.5379 -37.9378 -72.8381
25.6857 -37.9367 -72.8319
25.8353 -37.9344 -72.8395
25.9853 -37.9319 -72.8496
26.1363 -37.9287 -72.8673
26.2876 -37.9253 -72.8867
26.437 -37.9232 -72.8921
26.5848 -37.9222 -72.8856
26.7319 -37.9216 -72.8743
26.8794 -37.9207 -72.8662
27.0321 -37.9165 -72.8944
27.1903 -37.9088 -72.9616
27.3491 -37.9008 -73.0326
27.506 -37.8941 -73.0892
27.6616 -37.8882 -73.1357
27.8168 -37.8827 -73.1792
27.9724 -37.8769 -73.2252
28.1275 -37.8715 -73.267
28.2799 -37.8678 -73.2894
28.4299 -37.8656 -73.2954
28.5809 -37.8628 -73.3088
28.7339 -37.8587 -73.3349
28.8862 -37.8552 -73.3557
29.0359 -37.8532 -73.3596
29.1839 -37.8523 -73.3515
29.3313 -37.8517 -73.3396
29.4787 -37.8512 -73.3276
29.6269 -37.8501 -73.3212
29.7777 -37.8475 -73.3316
29.931 -37.8434 -73.3582
30.0836 -37.8398 -73.3801
30.2337 -37.8377 -73.3851
30.3839 -37.8355 -73.391
30.537 -37.8317 -73.4148
30.6905 -37.8276 -73.4412
30.8404 -37.8256 -73.4446
30.9865 -37.8258 -73.4238
31.1319 -37.8264 -73.3992
31.278 -37.8266 -73.3787
31.4221 -37.8278 -73.3463
31.5645 -37.83 -73.3032
31.7102 -37.8304 -73.2809
31.8607 -37.828 -73.2881
32.0121 -37.8252 -73.3009
32.1622 -37.8231 -73.3054
32.3115 -37.8215 -73.3048
32.4623 -37.8191 -73.313
32.617 -37.8145 -73.3448
32.7758 -37.8078 -73.4005
32.9369 -37.7998 -73.4693
33.0978 -37.7921 -73.5365
33.2566 -37.7855 -73.59
33.4147 -37.7793 -73.6398
33.576 -37.7715 -73.7068
33.7419 -37.7613 -73.8009
33.9108 -37.7497 -73.9104
34.0778 -37.7391 -74.0086
34.2376 -37.7323 -74.0645
34.4101 -37.719 -74.193
34.6204 -37.6863 -74.5345
34.8093 -37.6649 -74.7521
34.9969 -37.6442 -74.9607
35.1955 -37.6182 -75.229
35.3832 -37.5978 -75.4346
35.5571 -37.5846 -75.5615
35.7327 -37.5706 -75.6964
35.914 -37.5539 -75.8618
36.0996 -37.5351 -76.0493
36.2821 -37.518 -76.2186
36.4528 -37.5069 -76.3219
36.6162 -37.4995 -76.3845
36.7797 -37.492 -76.4474
36.946 -37.4833 -76.5248
37.1142 -37.4737 -76.6112
37.2801 -37.4652 -76.6853
37.444 -37.4578 -76.7475
37.6094 -37.4496 -76.8176
37.7762 -37.4409 -76.8941
37.9413 -37.4331 -76.9612
38.1031 -37.4268 -77.0106
38.2666 -37.4199 -77.0677
38.4405 -37.408 -77.1792
38.6248 -37.3913 -77.3437
38.8098 -37.3743 -77.5107
38.988 -37.3607 -77.6406
10.736 -38.0057 -75.4811
10.8663 -38.0321 -75.167
11.004 -38.0474 -74.9777
11.1421 -38.0618 -74.7992
11.2825 -38.0727 -74.6596
11.4237 -38.0822 -74.5362
11.5651 -38.0911 -74.4194
11.7067 -38.0995 -74.3081
11.8487 -38.1073 -74.2037
11.9923 -38.1127 -74.1263
12.1375 -38.1159 -74.0731
12.2827 -38.1191 -74.021
12.4289 -38.1208 -73.9851
12.5773 -38.1197 -73.9805
12.7273 -38.1166 -73.9988
12.8769 -38.114 -74.0117
13.0247 -38.1137 -73.9984
13.1713 -38.1149 -73.9686
13.3177 -38.1161 -73.9383
13.4654 -38.1159 -73.9236
13.6136 -38.1149 -73.9178
13.7612 -38.1147 -73.9033
13.909 -38.1143 -73.891
14.0569 -38.1138 -73.8807
14.2048 -38.1131 -73.8714
14.3535 -38.1116 -73.8715
14.5031 -38.1092 -73.8819
14.6519 -38.1075 -73.8836
14.8 -38.1068 -73.8751
14.948 -38.1061 -73.8663
15.0958 -38.1055 -73.8557
15.2429 -38.1057 -73.8362
15.3896 -38.1064 -73.8123
15.5363 -38.107 -73.7878
15.6824 -38.1082 -73.7579
15.8276 -38.1103 -73.7174
15.9724 -38.1128 -73.6726
16.1186 -38.1138 -73.6442
16.2662 -38.1132 -73.6334
16.4136 -38.113 -73.6189
16.5588 -38.1148 -73.5811
16.7035 -38.1171 -73.5384
16.8503 -38.1173 -73.5191
16.9985 -38.1162 -73.5142
17.1465 -38.1153 -73.5082
17.2953 -38.1135 -73.5109
17.4451 -38.1108 -73.524
17.5941 -38.1089 -73.5286
17.7417 -38.1083 -73.5176
17.8887 -38.1083 -73.5002
18.0353 -38.1087 -73.4796
18.1813 -38.1095 -73.4529
18.327 -38.1105 -73.424
18.4735 -38.1109 -73.4031
18.6212 -38.1101 -73.3945
18.7693 -38.109 -73.3896
18.9159 -38.1092 -73.37
19.061 -38.1107 -73.336
19.2069 -38.1115 -73.31
19.3539 -38.1113 -73.2952
19.5003 -38.1116 -73.2744
19.6464 -38.112 -73.2517
19.7938 -38.1115 -73.2407
19.9422 -38.11 -73.2394
20.0908 -38.1084 -73.2402
20.2392 -38.107 -73.2391
20.3867 -38.1062 -73.23
20.5333 -38.1063 -73.2123
20.6794 -38.1067 -73.1897
20.8267 -38.1062 -73.1781
20.9768 -38.1033 -73.1929
21.1292 -38.0987 -73.2267
21.2823 -38.0936 -73.2673
21.4361 -38.088 -73.3125
21.5913 -38.0812 -73.3704
21.7473 -38.074 -73.4341
21.9013 -38.0684 -73.4788
22.0516 -38.0657 -73.4918
22.1994 -38.0649 -73.4831
22.3462 -38.0648 -73.4662
22.493 -38.0648 -73.4492
22.6405 -38.0642 -73.4379
22.7885 -38.0633 -73.4307
22.9348 -38.0635 -73.41
23.0783 -38.0659 -73.3661
23.2223 -38.0678 -73.327
23.3705 -38.0666 -73.3222
23.523 -38.0624 -73.3517
23.6748 -38.0586 -73.3764
23.8223 -38.058 -73.3658
23.9671 -38.0593 -73.3328
24.1112 -38.061 -73.2955
24.2539 -38.0638 -73.2474
24.395 -38.0675 -73.1875
24.5347 -38.0722 -73.117
24.6745 -38.0768 -73.0475
24.8157 -38.0803 -72.9905
24.9589 -38.0825 -72.9487
25.1041 -38.0832 -72.9222
25.2499 -38.0835 -72.901
25.3949 -38.0843 -72.8742
25.5398 -38.0852 -72.8464
25.6865 -38.0848 -72.8326
25.836 -38.0827 -72.839
25.9865 -38.0797 -72.8536
26.1376 -38.0765 -72.8714
26.2884 -38.0735 -72.8872
26.4375 -38.0716 -72.8905
26.5847 -38.071 -72.8796
26.7312 -38.0707 -72.8642
26.8786 -38.0699 -72.8548
27.0284 -38.0676 -72.8631
27.1821 -38.0628 -72.8986
27.3389 -38.056 -72.9556
27.4968 -38.0487 -73.0192
27.6541 -38.0418 -73.0784
27.8109 -38.0353 -73.1332
27.9681 -38.0286 -73.1898
28.1245 -38.0223 -73.2412
28.2779 -38.018 -73.271
28.4289 -38.0152 -73.2837
28.5812 -38.0116 -73.306
28.7355 -38.0069 -73.3405
28.8881 -38.0031 -73.3636
29.0375 -38.0013 -73.3654
29.1852 -38.0006 -73.3554
29.332 -38.0003 -73.3399
29.4785 -38.0003 -73.3216
29.6262 -37.9995 -73.312
29.7773 -37.9968 -73.3245
29.9311 -37.9924 -73.3544
30.0842 -37.9885 -73.3794
30.2347 -37.9862 -73.387
30.3851 -37.9839 -73.3942
30.5378 -37.9803 -73.4156
30.6907 -37.9766 -73.438
30.8401 -37.9749 -73.4383
30.9855 -37.9755 -73.4136
31.1299 -37.9766 -73.3826
31.2755 -37.977 -73.3594
31.4205 -37.9778 -73.3322
31.564 -37.9793 -73.2965
31.7094 -37.9798 -73.2722
31.8587 -37.9782 -73.2719
32.0099 -37.9755 -73.2835
32.1604 -37.9732 -73.2901
32.3097 -37.9715 -73.29
32.461 -37.9688 -73.3013
32.6184 -37.9628 -73.3491
32.7812 -37.954 -73.4286
32.9444 -37.945 -73.5097
33.1054 -37.9373 -73.5772
33.2639 -37.9309 -73.6291
33.4218 -37.9249 -73.6774
33.5818 -37.9179 -73.7368
33.7464 -37.9084 -73.8229
33.9164 -37.8962 -73.9396
34.0845 -37.8852 -74.0435
34.2396 -37.8809 -74.0725
34.4052 -37.8712 -74.1614
34.6174 -37.8378 -74.5137
34.8134 -37.8129 -74.7719
35.0028 -37.7915 -74.9907
35.194 -37.7694 -75.2173
35.3806 -37.7498 -75.4163
35.5579 -37.7349 -75.5623
35.7398 -37.7179 -75.7323
35.9251 -37.6993 -75.9197
36.1119 -37.6801 -76.114
36.2963 -37.6622 -76.2931
36.4673 -37.6511 -76.3975
36.6285 -37.6448 -76.4483
36.7904 -37.6382 -76.5019
36.9558 -37.6299 -76.5745
37.123 -37.6208 -76.6558
37.2882 -37.6128 -76.7253
37.4525 -37.6053 -76.7897
37.6188 -37.5968 -76.8644
37.7851 -37.5884 -76.9383
37.9493 -37.581 -77.0003
38.1114 -37.5747 -77.0511
38.2753 -37.5676 -77.1102
38.4469 -37.5569 -77.2095
38.6291 -37.5413 -77.3629
38.8181 -37.5226 -77.5503
39.0037 -37.5057 -77.719
39.2188 -37.4752 -78.0374
10.7263 -38.1709 -75.3057
10.8564 -38.1973 -74.989
10.9937 -38.2129 -74.7955
11.1332 -38.225 -74.6414
11.274 -38.235 -74.5101
11.4158 -38.2433 -74.3991
11.5588 -38.25 -74.3073
11.702 -38.2561 -74.2203
11.8455 -38.2617 -74.1405
11.9907 -38.2649 -74.0874
12.1367 -38.2671 -74.0463
12.2821 -38.2698 -73.9989
12.428 -38.2719 -73.9579
12.5757 -38.2717 -73.9439
12.7249 -38.2695 -73.9517
12.8737 -38.2679 -73.9529
13.021 -38.2681 -73.9339
13.1684 -38.2682 -73.9158
13.3169 -38.267 -73.9133
13.4659 -38.2651 -73.9174
13.6149 -38.2633 -73.9219
13.7634 -38.262 -73.919
13.9115 -38.2612 -73.9114
14.0595 -38.2605 -73.9023
14.2069 -38.2605 -73.8853
14.3543 -38.2605 -73.8683
14.5025 -38.2596 -73.8623
14.6511 -38.2582 -73.8615
14.7997 -38.2568 -73.8601
14.9485 -38.2552 -73.8612
15.097 -38.2539 -73.859
15.2449 -38.2533 -73.8484
15.3924 -38.2531 -73.8341
15.5395 -38.2533 -73.815
15.6852 -38.2549 -73.7796
15.8293 -38.2582 -73.7255
15.9726 -38.2621 -73.6642
16.1177 -38.2642 -73.6233
16.2656 -38.2633 -73.6154
16.4138 -38.2622 -73.6113
16.5602 -38.2629 -73.586
16.7052 -38.2649 -73.5465
16.8514 -38.2657 -73.5202
16.9989 -38.2652 -73.5092
17.1469 -38.2642 -73.5031
17.2959 -38.2622 -73.5079
17.4457 -38.2596 -73.5204
17.5943 -38.2581 -73.5203
17.7412 -38.2581 -73.5025
17.8876 -38.2587 -73.4794
18.034 -38.2591 -73.457
18.18 -38.2599 -73.4309
18.3255 -38.2611 -73.4
18.4714 -38.262 -73.3728
18.6189 -38.2614 -73.3621
18.7676 -38.2597 -73.3642
18.9156 -38.2586 -73.3584
19.0616 -38.2593 -73.3336
19.207 -38.2605 -73.303
19.3531 -38.261 -73.2794
19.4995 -38.2613 -73.259
19.6462 -38.2613 -73.2414
19.7938 -38.2605 -73.2331
19.9422 -38.259 -73.2319
20.0907 -38.2575 -73.2317
20.2387 -38.2564 -73.2267
20.3861 -38.2558 -73.2159
20.5329 -38.2557 -73.1998
20.6794 -38.2557 -73.1815
20.8266 -38.2552 -73.1698
20.9759 -38.253 -73.1769
21.1268 -38.2496 -73.1981
21.2781 -38.2459 -73.2226
21.4315 -38.2406 -73.2647
21.5878 -38.2331 -73.3323
21.7453 -38.2247 -73.4091
21.9004 -38.2182 -73.4644
22.0509 -38.2154 -73.4791
22.1987 -38.2146 -73.47
22.3462 -38.214 -73.4591
22.4941 -38.2131 -73.4515
22.6419 -38.2123 -73.4429
22.7893 -38.2118 -73.4308
22.9348 -38.2126 -73.4031
23.0788 -38.2146 -73.3638
23.2239 -38.2157 -73.3335
23.3721 -38.2145 -73.3284
23.5229 -38.2115 -73.3447
23.673 -38.209 -73.3555
23.821 -38.208 -73.3482
23.9683 -38.2075 -73.3365
24.1163 -38.2065 -73.3295
24.2633 -38.2062 -73.3151
24.407 -38.2081 -73.275
24.5471 -38.2126 -73.2072
24.6853 -38.2183 -73.1251
24.8243 -38.2233 -73.0503
24.9653 -38.2269 -72.9918
25.1081 -38.2293 -72.9467
25.2523 -38.2306 -72.9138
25.3973 -38.2315 -72.8861
25.5421 -38.2323 -72.8581
25.6885 -38.2322 -72.8415
25.8375 -38.2303 -72.8445
25.9877 -38.2277 -72.8563
26.1381 -38.2249 -72.8695
26.2885 -38.2222 -72.8822
26.4373 -38.2205 -72.8834
26.5836 -38.2203 -72.8668
26.7293 -38.2206 -72.8454
26.8767 -38.2198 -72.8361
27.0264 -38.2175 -72.8436
27.1783 -38.2139 -72.8664
27.3329 -38.2086 -72.9078
27.4895 -38.2021 -72.9629
27.6462 -38.1956 -73.0181
27.8028 -38.1892 -73.0715
27.96 -38.1824 -73.1295
28.1174 -38.1756 -73.1876
28.2728 -38.1701 -73.2307
28.4261 -38.1659 -73.2603
28.5804 -38.1611 -73.2957
28.7358 -38.1557 -73.3377
28.8885 -38.1519 -73.3617
29.0381 -38.1501 -73.3642
29.1861 -38.1491 -73.3566
29.3331 -38.1488 -73.342
29.4795 -38.1488 -73.3235
29.627 -38.1481 -73.3127
29.7779 -38.1454 -73.3241
29.9317 -38.1411 -73.3537
30.085 -38.1371 -73.38
30.2358 -38.1347 -73.3894
30.386 -38.1325 -73.3952
30.538 -38.1293 -73.4127
30.6906 -38.1258 -73.4336
30.8407 -38.1237 -73.4378
30.9865 -38.124 -73.4156
31.1304 -38.1254 -73.3817
31.2749 -38.1265 -73.3509
31.4196 -38.1273 -73.3224
31.564 -38.1284 -73.2921
31.7094 -38.1288 -73.2682
31.8579 -38.1276 -73.2628
32.0089 -38.125 -73.2732
32.1597 -38.1226 -73.2818
32.309 -38.1209 -73.2817
32.4604 -38.1182 -73.2937
32.6195 -38.1113 -73.3518
32.7854 -38.1009 -73.4499
32.9509 -38.0908 -73.5446
33.1123 -38.0829 -73.6144
33.2709 -38.0765 -73.6668
33.4287 -38.0706 -73.7141
33.5877 -38.0641 -73.7677
33.7513 -38.0553 -73.8476
33.9219 -38.0429 -73.9675
34.0936 -38.0301 -74.0927
34.2565 -38.0219 -74.1656
34.4278 -38.0094 -74.2867
34.6234 -37.9847 -74.5441
34.8169 -37.9613 -74.7879
35.0054 -37.9405 -75.0014
35.1949 -37.9194 -75.2187
35.3849 -37.8982 -75.4371
35.568 -37.8806 -75.6149
35.7555 -37.861 -75.8158
35.9393 -37.8433 -75.9949
36.1222 -37.8261 -76.1672
36.3046 -37.8094 -76.3355
36.4774 -37.7974 -76.4498
36.6398 -37.7906 -76.5063
36.8006 -37.7847 -76.554
36.9643 -37.7773 -76.6169
37.1303 -37.7689 -76.6914
37.2964 -37.7605 -76.7658
37.4616 -37.7526 -76.8351
37.6264 -37.7449 -76.9015
37.791 -37.7373 -76.9662
37.9552 -37.73 -77.0285
38.1185 -37.7232 -77.085
38.2818 -37.7164 -77.1412
38.4483 -37.7082 -77.2137
38.6275 -37.6941 -77.3519
38.8292 -37.6697 -77.6049
39.0248 -37.6483 -77.8245
39.2279 -37.6236 -78.081
10.7174 -38.3348 -75.142
10.8483 -38.3596 -74.8412
10.985 -38.3758 -74.6394
11.1256 -38.3861 -74.5043
11.2679 -38.3938 -74.3993
11.4112 -38.4 -74.3113
11.5548 -38.4056 -74.231
11.6988 -38.4105 -74.1576
11.8437 -38.4142 -74.0987
11.9898 -38.4162 -74.0586
12.1361 -38.4178 -74.0237
12.2817 -38.4203 -73.9784
12.4272 -38.4228 -73.9325
12.5743 -38.4233 -73.9105
12.7228 -38.422 -73.9078
12.8709 -38.4212 -73.9003
13.0184 -38.4211 -73.8843
13.1664 -38.4204 -73.8756
13.3157 -38.4182 -73.8841
13.4656 -38.4153 -73.9007
13.6154 -38.4126 -73.9149
13.7643 -38.4108 -73.9176
13.9125 -38.4098 -73.9121
14.0607 -38.4089 -73.9056
14.2082 -38.4088 -73.8895
14.3549 -38.4096 -73.8635
14.5022 -38.4096 -73.8471
14.6507 -38.4083 -73.8441
14.7995 -38.4067 -73.8455
14.9484 -38.405 -73.8485
15.0972 -38.4034 -73.8497
15.2456 -38.4022 -73.8457
15.3943 -38.4007 -73.8458
15.5426 -38.3997 -73.8397
15.688 -38.4016 -73.8015
15.8311 -38.4058 -73.7364
15.9737 -38.4104 -73.6663
16.118 -38.4133 -73.6165
16.265 -38.4133 -73.599
16.413 -38.4124 -73.5919
16.56 -38.4125 -73.5742
16.7062 -38.4133 -73.5474
16.8528 -38.4136 -73.5262
17.0003 -38.4131 -73.5145
17.1485 -38.412 -73.5099
17.2974 -38.4102 -73.5138
17.4465 -38.4081 -73.5199
17.5946 -38.4071 -73.5146
17.7411 -38.4075 -73.4923
17.8868 -38.4086 -73.4619
18.0328 -38.4094 -73.4354
18.1789 -38.4101 -73.4104
18.3245 -38.4112 -73.3805
18.47 -38.4124 -73.3492
18.6166 -38.4125 -73.3307
18.7649 -38.4112 -73.3286
18.9134 -38.4097 -73.3278
19.0605 -38.4094 -73.314
19.2062 -38.4102 -73.2866
19.3521 -38.411 -73.2608
19.4988 -38.4109 -73.2435
19.6459 -38.4106 -73.2299
19.7935 -38.4098 -73.2212
19.9418 -38.4085 -73.2194
20.09 -38.4071 -73.2167
20.2378 -38.4062 -73.2101
20.3852 -38.4055 -73.1997
20.5319 -38.4054 -73.1834
20.6783 -38.4056 -73.1637
20.8254 -38.4051 -73.1514
20.974 -38.4036 -73.1516
21.1234 -38.4013 -73.1597
21.2736 -38.3984 -73.1749
21.4261 -38.3938 -73.21
21.5824 -38.3863 -73.2776
21.7405 -38.3775 -73.3595
21.8965 -38.3704 -73.4231
22.0481 -38.3666 -73.4478
22.1971 -38.3649 -73.4494
22.3458 -38.3635 -73.4484
22.4942 -38.3622 -73.4453
22.642 -38.3614 -73.4361
22.7886 -38.3614 -73.4177
22.9341 -38.3623 -73.3903
23.0794 -38.3633 -73.3612
23.2256 -38.3635 -73.3403
23.3735 -38.3626 -73.3332
23.5227 -38.3607 -73.3367
23.672 -38.3588 -73.3402
23.8204 -38.3574 -73.3376
23.9692 -38.3559 -73.3373
24.1195 -38.3533 -73.3485
24.2692 -38.3511 -73.3559
24.4152 -38.3515 -73.3331
24.5565 -38.3551 -73.2744
24.695 -38.3605 -73.1941
24.8336 -38.3658 -73.1159
24.9738 -38.37 -73.0504
25.1153 -38.3732 -72.9958
25.2579 -38.3756 -72.9501
25.4014 -38.3774 -72.9112
25.5455 -38.3788 -72.8779
25.6916 -38.3789 -72.8586
25.8396 -38.3776 -72.8546
25.9881 -38.3761 -72.8541
26.1373 -38.3741 -72.8583
26.2872 -38.3717 -72.8673
26.4358 -38.3701 -72.8672
26.5818 -38.3702 -72.8481
26.7277 -38.3703 -72.8282
26.8763 -38.3687 -72.8278
27.0265 -38.3661 -72.8392
27.1778 -38.3629 -72.8573
27.3305 -38.3588 -72.8861
27.4845 -38.3539 -72.923
27.6385 -38.3491 -72.9594
27.7929 -38.344 -72.9981
27.9492 -38.3379 -73.0494
28.1062 -38.3314 -73.1051
28.2631 -38.3249 -73.1597
28.4201 -38.3184 -73.2146
28.5774 -38.3119 -73.2703
28.7333 -38.3062 -73.3163
28.8864 -38.3022 -73.3428
29.0365 -38.3 -73.3493
29.1852 -38.2987 -73.3456
29.3331 -38.2978 -73.3372
29.4807 -38.2971 -73.3267
29.6291 -38.2959 -73.3219
29.78 -38.2933 -73.3328
29.9331 -38.2894 -73.3584
30.0861 -38.2856 -73.3823
30.2371 -38.283 -73.3934
30.3873 -38.2808 -73.3995
30.5388 -38.2779 -73.4133
30.691 -38.2747 -73.4314
30.8413 -38.2725 -73.4373
30.9877 -38.2725 -73.4186
31.1314 -38.2739 -73.3835
31.275 -38.2755 -73.3473
31.419 -38.2767 -73.3144
31.5637 -38.2776 -73.2859
31.7098 -38.2776 -73.2663
31.8585 -38.2763 -73.2625
32.0098 -38.2736 -73.2746
32.1611 -38.2709 -73.2863
32.3107 -38.269 -73.2879
32.4619 -38.2664 -73.2989
32.6209 -38.2596 -73.3566
32.7879 -38.2487 -73.4611
32.9555 -38.2376 -73.5677
33.1188 -38.2288 -73.6486
33.2784 -38.2219 -73.707
33.4362 -38.2161 -73.754
33.5945 -38.21 -73.8034
33.7571 -38.2018 -73.8778
33.9267 -38.19 -73.9918
34.0988 -38.1771 -74.1185
34.2675 -38.166 -74.225
34.4431 -38.1514 -74.3704
34.6306 -38.131 -74.5818
34.8198 -38.1099 -74.8008
35.0052 -38.0909 -74.997
35.1929 -38.0708 -75.2039
35.3896 -38.0465 -75.4597
35.5861 -38.0224 -75.7125
35.7715 -38.004 -75.901
35.9496 -37.9892 -76.0482
36.1264 -37.9752 -76.1869
36.3135 -37.9563 -76.3807
36.4914 -37.9421 -76.5224
36.6524 -37.9359 -76.5718
36.8113 -37.9309 -76.6089
36.9737 -37.9243 -76.6641
37.14 -37.9158 -76.7402
37.3062 -37.9074 -76.8151
37.4696 -37.9004 -76.8747
37.6312 -37.8943 -76.9237
37.7954 -37.887 -76.9863
37.9629 -37.8782 -77.0659
38.1269 -37.8711 -77.1261
38.288 -37.8654 -77.1707
38.4494 -37.8596 -77.2167
38.6205 -37.8493 -77.3123
38.8261 -37.8233 -77.5859
39.0367 -37.7952 -77.8831
10.3176 -38.4187 -75.9508
10.4524 -38.4394 -75.6949
10.7078 -38.4994 -74.968
10.8402 -38.5217 -74.6932
10.9778 -38.5363 -74.5082
11.1197 -38.5446 -74.3949
11.2641 -38.5494 -74.3227
11.4093 -38.5528 -74.267
11.5537 -38.5572 -74.1985
11.6975 -38.5624 -74.1222
11.8424 -38.566 -74.0633
11.9886 -38.5678 -74.0257
12.1353 -38.5688 -73.9974
12.2814 -38.5706 -73.9598
12.427 -38.573 -73.9152
12.5733 -38.5744 -73.8816
12.7208 -38.5743 -73.8658
12.869 -38.5734 -73.8593
13.0171 -38.5726 -73.8521
13.1653 -38.5715 -73.8474
13.3142 -38.5698 -73.8506
13.4638 -38.5672 -73.8628
13.6138 -38.5642 -73.8808
13.7636 -38.5613 -73.8967
13.9129 -38.5592 -73.9042
14.0617 -38.5576 -73.906
14.2091 -38.5576 -73.8882
14.3552 -38.559 -73.8551
14.5021 -38.5594 -73.8339
14.6506 -38.5581 -73.831
14.7994 -38.5565 -73.8326
14.9481 -38.555 -73.8326
15.0968 -38.5535 -73.8324
15.2458 -38.5517 -73.8365
15.3957 -38.5489 -73.851
15.5448 -38.5471 -73.8546
15.6902 -38.549 -73.8157
15.8329 -38.5536 -73.7458
15.9754 -38.5582 -73.6751
16.1196 -38.5611 -73.6239
16.2657 -38.562 -73.5961
16.4127 -38.5621 -73.5783
16.5598 -38.562 -73.5616
16.7069 -38.562 -73.5451
16.8541 -38.5617 -73.5303
17.0017 -38.5611 -73.5199
17.15 -38.5599 -73.5167
17.2989 -38.5581 -73.5202
17.4477 -38.5563 -73.5229
17.5956 -38.5555 -73.5152
17.7419 -38.5561 -73.491
17.8871 -38.5576 -73.4553
18.0323 -38.5591 -73.4214
18.1783 -38.5598 -73.395
18.3242 -38.5607 -73.3677
18.4696 -38.5619 -73.3362
18.6154 -38.5627 -73.3092
18.7625 -38.5624 -73.2952
18.9102 -38.5615 -73.2878
19.0576 -38.5609 -73.277
19.2044 -38.5609 -73.2601
19.3514 -38.5606 -73.2455
19.4988 -38.56 -73.2349
19.6455 -38.5599 -73.218
19.7925 -38.5596 -73.2038
19.9405 -38.5585 -73.1993
20.0888 -38.5571 -73.1977
20.2369 -38.5559 -73.1941
20.3842 -38.5553 -73.183
20.5305 -38.5556 -73.1623
20.6764 -38.5561 -73.1384
20.8233 -38.5558 -73.124
20.9714 -38.5545 -73.1212
21.12 -38.5529 -73.1217
21.2694 -38.5506 -73.1299
21.421 -38.5467 -73.1568
21.5758 -38.5404 -73.2117
21.7332 -38.5322 -73.2884
21.8894 -38.5249 -73.354
22.0424 -38.5201 -73.3909
22.1934 -38.5168 -73.4105
22.3429 -38.5147 -73.4171
22.4917 -38.5132 -73.4167
22.6404 -38.5117 -73.4159
22.7882 -38.5108 -73.4076
22.9347 -38.5109 -73.3889
23.0809 -38.5112 -73.3674
23.2276 -38.5111 -73.3503
23.3753 -38.5103 -73.3412
23.5238 -38.5089 -73.3392
23.6728 -38.5072 -73.3408
23.822 -38.5054 -73.3436
23.9712 -38.5035 -73.3469
24.1211 -38.5012 -73.3552
24.2709 -38.499 -73.3625
24.4182 -38.4985 -73.3505
24.562 -38.5003 -73.3111
24.7031 -38.504 -73.2508
24.8434 -38.5081 -73.1853
24.9838 -38.5121 -73.1212
25.1247 -38.5157 -73.0619
25.2666 -38.5186 -73.0099
25.4087 -38.5213 -72.9608
25.5518 -38.5234 -72.9191
25.697 -38.524 -72.8935
25.843 -38.5241 -72.874
25.9889 -38.5243 -72.8538
26.1364 -38.5234 -72.8457
26.286 -38.5212 -72.8529
26.4347 -38.5195 -72.8536
26.5811 -38.5193 -72.8372
26.7281 -38.5187 -72.8256
26.8776 -38.5166 -72.8317
27.0277 -38.5141 -72.8418
27.1781 -38.5114 -72.8541
27.3298 -38.5079 -72.8756
27.4817 -38.5044 -72.8976
27.6328 -38.5013 -72.9145
27.7849 -38.4977 -72.9372
27.9386 -38.4931 -72.9715
28.0942 -38.4874 -73.0176
28.2512 -38.4809 -73.0737
28.4109 -38.4729 -73.1468
28.5706 -38.4649 -73.2191
28.7279 -38.4584 -73.2749
28.8824 -38.4536 -73.3108
29.0337 -38.4507 -73.3255
29.183 -38.449 -73.3267
29.3321 -38.4474 -73.3261
29.4813 -38.4457 -73.3264
29.6313 -38.4436 -73.3315
29.7826 -38.4408 -73.345
29.9347 -38.4376 -73.3637
30.0867 -38.4344 -73.3814
30.2377 -38.4317 -73.393
30.3891 -38.4289 -73.4063
30.5412 -38.4257 -73.4239
30.6926 -38.4229 -73.4371
30.8416 -38.4214 -73.435
30.9872 -38.4219 -73.411
31.1305 -38.4235 -73.3734
31.2736 -38.4252 -73.3347
31.4175 -38.4265 -73.3013
31.5627 -38.4271 -73.2758
31.7096 -38.4267 -73.2606
31.8588 -38.4251 -73.26
32.0106 -38.4221 -73.2757
32.163 -38.4188 -73.2938
32.3134 -38.4166 -73.3
32.4649 -38.4138 -73.3129
32.6238 -38.4072 -73.3696
32.7909 -38.3963 -73.475
32.9606 -38.3842 -73.5941
33.1264 -38.3741 -73.6894
33.2856 -38.3676 -73.7451
33.4426 -38.3622 -73.7877
33.6007 -38.3562 -73.8362
33.764 -38.3477 -73.9142
33.9345 -38.3356 -74.0328
34.1079 -38.3221 -74.1673
34.2796 -38.3096 -74.2908
34.4561 -38.2947 -74.4408
34.6404 -38.2761 -74.6335
34.8243 -38.2578 -74.8227
35.0029 -38.2423 -74.9805
35.1836 -38.2258 -75.1485
35.3834 -38.2001 -75.4218
35.5967 -38.168 -75.7678
35.7795 -38.151 -75.9421
35.9518 -38.1392 -76.0566
36.1217 -38.1287 -76.1575
36.3209 -38.1041 -76.4177
36.5072 -38.0858 -76.6055
36.6663 -38.0807 -76.6438
36.8236 -38.0765 -76.6721
36.9872 -38.0694 -76.7337
37.1545 -38.0605 -76.8149
37.3178 -38.0535 -76.8744
37.4765 -38.0488 -76.908
37.6357 -38.0439 -76.9445
37.8014 -38.036 -77.0148
37.9714 -38.0261 -77.1074
38.1346 -38.0194 -77.1635
38.2931 -38.0149 -77.1943
38.4509 -38.0108 -77.2215
38.6133 -38.0046 -77.2719
38.8018 -37.9866 -77.457
9.7428 -38.5375 -76.3828
9.8777 -38.5595 -76.1103
10.013 -38.5802 -75.8514
10.1474 -38.6017 -75.5841
10.2911 -38.609 -75.4822
10.4389 -38.6103 -75.45
10.5689 -38.6369 -75.1228
10.6993 -38.6623 -74.8103
10.8334 -38.6818 -74.5659
10.9722 -38.6944 -74.4019
11.1152 -38.7011 -74.3078
11.2613 -38.7034 -74.2638
11.4084 -38.7043 -74.236
11.5537 -38.7074 -74.183
11.6973 -38.7127 -74.104
11.8412 -38.7176 -74.0308
11.9869 -38.7199 -73.9861
12.134 -38.7204 -73.9636
12.2811 -38.721 -73.9398
12.4271 -38.7228 -73.9017
12.5727 -38.725 -73.8584
12.7193 -38.726 -73.8304
12.8678 -38.7247 -73.8286
13.0167 -38.7227 -73.834
13.1653 -38.7214 -73.833
13.3135 -38.7203 -73.8278
13.4619 -38.7192 -73.8243
13.6115 -38.7165 -73.8382
13.7624 -38.7125 -73.8678
13.9133 -38.7086 -73.8961
14.0628 -38.7062 -73.9067
14.2097 -38.7066 -73.8846
14.3554 -38.7084 -73.8464
14.5022 -38.709 -73.8225
14.6507 -38.7077 -73.8199
14.7996 -38.7059 -73.8232
14.9482 -38.7045 -73.8228
15.097 -38.7029 -73.8238
15.2467 -38.7004 -73.8354
15.397 -38.6973 -73.8545
15.5459 -38.6956 -73.8571
15.6913 -38.6975 -73.8177
15.8341 -38.7019 -73.7486
15.9768 -38.7063 -73.6801
16.1212 -38.709 -73.6313
16.267 -38.7102 -73.5995
16.4134 -38.7108 -73.5755
16.5603 -38.7109 -73.5567
16.7075 -38.7107 -73.5415
16.8548 -38.7104 -73.5274
17.0025 -38.7098 -73.5177
17.1509 -38.7084 -73.5166
17.3 -38.7064 -73.5222
17.449 -38.7045 -73.5261
17.5967 -38.7038 -73.5173
17.7429 -38.7044 -73.4924
17.8878 -38.7063 -73.4532
18.0321 -38.7085 -73.4099
18.1774 -38.7098 -73.3769
18.3237 -38.7103 -73.3534
18.4697 -38.711 -73.328
18.6155 -38.7118 -73.301
18.7618 -38.7121 -73.2791
18.9084 -38.7122 -73.261
19.0552 -38.712 -73.2448
19.2029 -38.7112 -73.2368
19.3516 -38.7095 -73.239
19.5001 -38.7079 -73.2396
19.6465 -38.7082 -73.2188
19.792 -38.709 -73.1912
19.9392 -38.7086 -73.1785
20.0876 -38.7071 -73.1783
20.2363 -38.7054 -73.1798
20.3836 -38.7048 -73.169
20.5294 -38.7054 -73.144
20.6752 -38.7059 -73.1204
20.8223 -38.7054 -73.108
20.9704 -38.7042 -73.1039
21.1183 -38.7031 -73.0993
21.2668 -38.7015 -73.0995
21.4171 -38.6986 -73.1155
21.5699 -38.6938 -73.1532
21.7254 -38.687 -73.2135
21.8808 -38.6804 -73.2722
22.034 -38.6754 -73.3119
22.1854 -38.6719 -73.3347
22.3352 -38.6695 -73.3444
22.4849 -38.6672 -73.3522
22.6363 -38.6637 -73.3746
22.7877 -38.6602 -73.397
22.9365 -38.6587 -73.3966
23.0833 -38.6586 -73.3801
23.2299 -38.6585 -73.3625
23.3775 -38.6578 -73.3528
23.5261 -38.6564 -73.3508
23.6752 -38.6546 -73.3537
23.8247 -38.6526 -73.3585
23.9736 -38.6509 -73.3595
24.122 -38.6496 -73.3561
24.2704 -38.6484 -73.3524
24.4179 -38.6477 -73.3416
24.564 -38.6479 -73.3206
24.7094 -38.6487 -73.2939
24.8533 -38.6504 -73.2558
24.9948 -38.6536 -73.1998
25.1352 -38.6576 -73.136
25.2764 -38.6609 -73.0788
25.4184 -38.6637 -73.028
25.5612 -38.666 -72.9833
25.7049 -38.6676 -72.9462
25.8484 -38.6693 -72.9081
25.9916 -38.6712 -72.8683
26.1373 -38.6714 -72.8471
26.2864 -38.6695 -72.8507
26.4352 -38.6679 -72.8514
26.5822 -38.6672 -72.84
26.73 -38.6662 -72.8337
26.8794 -38.6641 -72.8392
27.0288 -38.662 -72.8446
27.1785 -38.6598 -72.8517
27.3297 -38.6566 -72.8699
27.4809 -38.6536 -72.8868
27.6307 -38.6513 -72.8944
27.7808 -38.6488 -72.9041
27.9324 -38.6456 -72.9233
28.0855 -38.6414 -72.9529
28.2408 -38.6359 -72.9974
28.3991 -38.6287 -73.0613
28.5592 -38.6205 -73.1375
28.7188 -38.6127 -73.2086
28.877 -38.6058 -73.2697
29.0301 -38.6018 -73.2969
29.181 -38.5992 -73.3083
29.3316 -38.5967 -73.3181
29.4821 -38.5943 -73.3269
29.633 -38.5917 -73.3379
29.7843 -38.5889 -73.352
29.9357 -38.586 -73.366
30.0867 -38.5834 -73.3774
30.2377 -38.5807 -73.3886
30.3896 -38.5777 -73.4051
30.5421 -38.5743 -73.4255
30.6927 -38.5719 -73.4332
30.8401 -38.5714 -73.421
30.9848 -38.5722 -73.3921
31.1278 -38.574 -73.352
31.2707 -38.5758 -73.3124
31.4151 -38.5768 -73.2819
31.5612 -38.5769 -73.262
31.7087 -38.5762 -73.2514
31.8583 -38.5744 -73.2531
32.0107 -38.5711 -73.2716
32.164 -38.5673 -73.2956
32.3155 -38.5645 -73.3087
32.4679 -38.5613 -73.3271
32.6279 -38.5541 -73.39
32.7955 -38.5431 -73.4982
32.9657 -38.5308 -73.6204
33.1322 -38.5204 -73.7203
33.2912 -38.514 -73.7744
33.4469 -38.5093 -73.8092
33.6046 -38.5037 -73.8552
33.7713 -38.4935 -73.9523
33.9484 -38.4782 -74.1095
34.1233 -38.464 -74.2525
34.2949 -38.4517 -74.3748
34.4711 -38.4372 -74.5226
34.6519 -38.4204 -74.6957
34.8297 -38.4053 -74.8496
35.0035 -38.3922 -74.9802
35.1808 -38.3776 -75.129
35.3813 -38.3518 -75.4061
35.6061 -38.3143 -75.8167
35.7807 -38.3014 -75.9454
35.9508 -38.2907 -76.0478
36.1201 -38.2805 -76.1455
36.3151 -38.2582 -76.3823
36.5249 -38.2289 -76.6989
36.6782 -38.2266 -76.7053
36.8351 -38.2226 -76.7312
36.9997 -38.215 -76.7982
37.1663 -38.2066 -76.8751
37.3259 -38.2014 -76.9142
37.483 -38.1975 -76.9398
37.6431 -38.1922 -76.9804
37.8083 -38.1845 -77.0485
37.9761 -38.1757 -77.1292
38.1387 -38.1694 -77.1816
38.2961 -38.1655 -77.2069
38.4533 -38.1616 -77.2307
38.6128 -38.1568 -77.266
9.5935 -38.6894 -76.3824
9.7303 -38.7086 -76.1396
9.8689 -38.7244 -75.9367
10.0099 -38.7363 -75.7792
10.1458 -38.7554 -75.5387
10.2769 -38.7809 -75.2219
10.42 -38.7885 -75.1151
10.5568 -38.8049 -74.9058
10.6909 -38.8246 -74.6567
10.828 -38.8398 -74.461
10.9685 -38.8499 -74.3254
11.1126 -38.8549 -74.2492
11.2595 -38.856 -74.2198
11.4071 -38.8562 -74.2005
11.5532 -38.8583 -74.1585
11.6972 -38.863 -74.0869
11.8406 -38.8683 -74.0071
11.9857 -38.8714 -73.9529
12.1332 -38.8714 -73.9368
12.2811 -38.8709 -73.9251
12.4272 -38.8725 -73.8896
12.5726 -38.875 -73.843
12.7191 -38.876 -73.8135
12.8677 -38.8745 -73.8138
13.0174 -38.8718 -73.8288
13.1663 -38.8699 -73.834
13.3142 -38.8693 -73.8233
13.4614 -38.8695 -73.8045
13.6101 -38.8678 -73.8062
13.7614 -38.8634 -73.8414
13.9129 -38.8587 -73.8793
14.0629 -38.8558 -73.8955
14.2102 -38.8558 -73.8781
14.3559 -38.8575 -73.8405
14.5026 -38.8582 -73.8155
14.651 -38.8569 -73.8126
14.8002 -38.8549 -73.8187
14.9491 -38.8532 -73.8218
15.0981 -38.8514 -73.8252
15.2478 -38.8488 -73.8381
15.3978 -38.846 -73.8535
15.5462 -38.8449 -73.8496
15.6917 -38.8466 -73.8114
15.8348 -38.8507 -73.7462
15.9777 -38.8549 -73.6799
16.1222 -38.8574 -73.6324
16.2681 -38.8585 -73.6021
16.4147 -38.8589 -73.5797
16.5614 -38.8592 -73.5586
16.7081 -38.8595 -73.5377
16.8552 -38.8594 -73.5213
17.0029 -38.8586 -73.5128
17.1515 -38.8571 -73.5132
17.3008 -38.8549 -73.5207
17.4497 -38.8531 -73.5242
17.5972 -38.8526 -73.5132
17.7433 -38.8533 -73.4867
17.8879 -38.8553 -73.4453
18.0315 -38.8582 -73.3943
18.1761 -38.8601 -73.3542
18.3229 -38.8601 -73.3365
18.4697 -38.86 -73.3198
18.6157 -38.8607 -73.2941
18.7619 -38.861 -73.272
18.9082 -38.8614 -73.2505
19.0544 -38.8618 -73.2282
19.2022 -38.8608 -73.2213
19.3522 -38.858 -73.2364
19.502 -38.8554 -73.2488
19.648 -38.8559 -73.225
19.7927 -38.8575 -73.1889
19.9391 -38.8576 -73.1694
20.0875 -38.8561 -73.1688
20.2363 -38.8543 -73.1717
20.3835 -38.8538 -73.1601
20.5293 -38.8544 -73.1353
20.6755 -38.8546 -73.1152
20.8231 -38.8537 -73.107
20.9709 -38.8527 -73.1013
21.1185 -38.8518 -73.0935
21.2663 -38.8508 -73.0874
21.4149 -38.8491 -73.0884
21.5652 -38.8462 -73.1044
21.7181 -38.8414 -73.1421
21.872 -38.8359 -73.1889
22.0245 -38.8314 -73.2227
22.175 -38.8285 -73.2388
22.3242 -38.8265 -73.2438
22.4742 -38.824 -73.2547
22.6279 -38.8188 -73.2972
22.7839 -38.8121 -73.3578
22.937 -38.8074 -73.394
23.085 -38.8064 -73.3872
23.2312 -38.8067 -73.3658
23.3786 -38.8061 -73.355
23.5279 -38.8041 -73.3593
23.6778 -38.8018 -73.3676
23.827 -38.8 -73.371
23.9754 -38.7987 -73.3675
24.1232 -38.7978 -73.3594
24.2706 -38.7972 -73.3479
24.4175 -38.797 -73.3324
24.5645 -38.7966 -73.3185
24.7129 -38.7953 -73.3146
24.8609 -38.7943 -73.3081
25.0047 -38.796 -73.2697
25.1454 -38.7998 -73.2071
25.2863 -38.8033 -73.1478
25.4289 -38.8057 -73.1012
25.5719 -38.8078 -73.0583
25.7143 -38.8103 -73.0107
25.8557 -38.8134 -72.9568
25.9971 -38.8164 -72.9034
26.1412 -38.8177 -72.8698
26.2888 -38.8167 -72.8621
26.4369 -38.8154 -72.8584
26.5842 -38.8147 -72.8486
26.7321 -38.8135 -72.8436
26.8811 -38.8117 -72.8458
27.0299 -38.81 -72.8474
27.1795 -38.8079 -72.8535
27.3305 -38.8048 -72.8701
27.4813 -38.802 -72.8848
27.6307 -38.7999 -72.8894
27.7799 -38.7981 -72.8927
27.9301 -38.7956 -72.9024
28.0815 -38.7925 -72.9204
28.2343 -38.7885 -72.948
28.3887 -38.7836 -72.986
28.5461 -38.777 -73.0437
28.7066 -38.7687 -73.1214
28.867 -38.7605 -73.198
29.0243 -38.7542 -73.2528
29.1789 -38.7494 -73.2894
29.3318 -38.7456 -73.3148
29.4836 -38.7425 -73.3318
29.6348 -38.7397 -73.3448
29.7858 -38.7371 -73.3566
29.9368 -38.7344 -73.3686
30.0879 -38.7317 -73.3805
30.2387 -38.7293 -73.3904
30.3896 -38.7268 -73.4003
30.5403 -38.7243 -73.4095
30.6895 -38.7228 -73.4084
30.8365 -38.7224 -73.3943
30.9814 -38.7232 -73.3659
31.1241 -38.7251 -73.3246
31.2671 -38.7268 -73.2854
31.4123 -38.7273 -73.2606
31.5597 -38.7267 -73.2486
31.7083 -38.7254 -73.2444
31.8585 -38.7232 -73.2504
32.0112 -38.7198 -73.2709
32.1646 -38.716 -73.2957
32.3173 -38.7126 -73.3155
32.472 -38.7082 -73.3473
32.6338 -38.7002 -73.4213
32.8011 -38.6894 -73.5276
32.9699 -38.6779 -73.6412
33.1357 -38.668 -73.7367
33.2954 -38.6613 -73.7953
33.4505 -38.6569 -73.8259
33.6048 -38.653 -73.8524
33.7725 -38.6424 -73.9555
33.9635 -38.6203 -74.1928
34.1394 -38.6058 -74.3411
34.31 -38.5941 -74.4575
34.4842 -38.5806 -74.5937
34.6612 -38.5659 -74.7448
34.8353 -38.5527 -74.8777
35.009 -38.5398 -75.0078
35.19 -38.5235 -75.1771
35.3826 -38.5017 -75.4099
35.588 -38.4738 -75.7125
35.7727 -38.4561 -75.8977
35.9465 -38.4438 -76.0208
36.1175 -38.4329 -76.1272
36.2994 -38.4169 -76.2928
36.5199 -38.3827 -76.6681
36.6802 -38.3772 -76.7127
36.8416 -38.3711 -76.763
37.0058 -38.3638 -76.8278
37.1694 -38.3568 -76.8883
37.3291 -38.3516 -76.9283
37.4881 -38.3468 -76.9638
37.6497 -38.3409 -77.0125
37.8143 -38.3336 -77.0766
37.9798 -38.3259 -77.1455
38.1416 -38.32 -77.1938
38.2996 -38.3158 -77.2222
38.4579 -38.3115 -77.2516
38.6186 -38.3061 -77.2932
38.7862 -38.2977 -77.3704
9.3116 -38.8151 -76.7092
9.4477 -38.836 -76.4438
9.587 -38.8514 -76.2438
9.7255 -38.8676 -76.0349
9.8629 -38.8849 -75.8128
10.0016 -38.9001 -75.6159
10.1383 -38.9176 -75.3908
10.2718 -38.9392 -75.118
10.4077 -38.9569 -74.8907
10.5458 -38.9711 -74.7052
10.6833 -38.9857 -74.5148
10.8236 -38.9962 -74.373
10.967 -39.0023 -74.2843
11.1121 -39.0058 -74.2256
11.2588 -39.0072 -74.1923
11.4059 -39.0079 -74.1659
11.5521 -39.0098 -74.1265
11.6969 -39.0134 -74.0668
11.8407 -39.0182 -73.993
11.9855 -39.0216 -73.9351
12.1334 -39.0211 -73.9243
12.2815 -39.0202 -73.9176
12.4272 -39.0224 -73.8744
12.5729 -39.0244 -73.833
12.7202 -39.0245 -73.8151
12.8691 -39.0227 -73.819
13.0186 -39.02 -73.8327
13.1679 -39.0178 -73.8421
13.3157 -39.0172 -73.8312
13.4623 -39.0181 -73.8033
13.6103 -39.0173 -73.7957
13.761 -39.0135 -73.8233
13.9121 -39.0093 -73.8551
14.0621 -39.0064 -73.8727
14.2103 -39.0054 -73.8673
14.3569 -39.0061 -73.841
14.5037 -39.0066 -73.8173
14.6519 -39.0056 -73.8115
14.801 -39.0038 -73.8162
14.9499 -39.002 -73.8199
15.0989 -39.0002 -73.8233
15.2486 -38.9977 -73.8356
15.3982 -38.9953 -73.8463
15.5461 -38.9946 -73.8364
15.6916 -38.9962 -73.7996
15.8352 -38.9998 -73.7398
15.9783 -39.0038 -73.6755
16.1227 -39.0063 -73.6278
16.269 -39.007 -73.6016
16.4161 -39.007 -73.5849
16.5627 -39.0074 -73.5624
16.7087 -39.0083 -73.5338
16.8554 -39.0084 -73.5141
17.0034 -39.0075 -73.5079
17.1521 -39.0059 -73.5092
17.3011 -39.004 -73.5139
17.4496 -39.0025 -73.5133
17.5968 -39.0022 -73.4987
17.7426 -39.0031 -73.4701
17.8872 -39.0052 -73.4284
18.031 -39.0078 -73.3793
18.176 -39.0093 -73.3435
18.3235 -39.0087 -73.3331
18.4698 -39.009 -73.3116
18.6153 -39.01 -73.2816
18.7619 -39.0101 -73.263
18.9087 -39.01 -73.2463
19.055 -39.0103 -73.2248
19.2023 -39.0097 -73.2137
19.3518 -39.0073 -73.2239
19.5015 -39.0048 -73.2357
19.6482 -39.0047 -73.2188
19.7931 -39.0061 -73.185
19.9395 -39.0062 -73.165
20.0881 -39.0045 -73.1669
20.237 -39.0027 -73.1706
20.3841 -39.0022 -73.1578
20.53 -39.0027 -73.1342
20.6765 -39.0027 -73.1164
20.824 -39.0019 -73.1075
20.9716 -39.0011 -73.0994
21.119 -39.0003 -73.0901
21.2664 -38.9996 -73.0807
21.4138 -38.9989 -73.0709
21.5618 -38.9976 -73.0669
21.712 -38.9948 -73.0823
21.864 -38.9907 -73.1127
22.0155 -38.987 -73.1376
22.1653 -38.9845 -73.1488
22.3138 -38.983 -73.1481
22.4627 -38.9812 -73.1508
22.6157 -38.9766 -73.1872
22.7722 -38.9694 -73.2532
22.9322 -38.9598 -73.3475
23.0849 -38.9555 -73.3796
23.2314 -38.9556 -73.361
23.3789 -38.9549 -73.3504
23.5288 -38.9526 -73.3595
23.6791 -38.95 -73.3714
23.8279 -38.9484 -73.3718
23.9761 -38.9473 -73.3664
24.1243 -38.9462 -73.3611
24.2718 -38.9454 -73.3512
24.4184 -38.9454 -73.3335
24.5654 -38.945 -73.3186
24.7144 -38.9433 -73.3202
24.8642 -38.9412 -73.3272
25.0108 -38.941 -73.3103
25.1535 -38.9434 -73.2634
25.2957 -38.9461 -73.2131
25.4393 -38.9479 -73.1733
25.583 -38.9496 -73.1354
25.7248 -38.9524 -73.0831
25.8646 -38.9565 -73.0168
26.0044 -38.9605 -72.9515
26.1469 -38.9627 -72.9061
26.2927 -38.9629 -72.8851
26.4395 -38.9625 -72.8717
26.5864 -38.962 -72.8591
26.7342 -38.9609 -72.8528
26.8826 -38.9595 -72.851
27.031 -38.958 -72.8493
27.1803 -38.956 -72.8539
27.3311 -38.9532 -72.8687
27.4818 -38.9504 -72.8827
27.6311 -38.9484 -72.8872
27.7799 -38.9467 -72.8875
27.9294 -38.9447 -72.8927
28.0801 -38.9419 -72.906
28.2313 -38.9389 -72.9224
28.3831 -38.9356 -72.9427
28.5369 -38.9311 -72.9765
28.6941 -38.9247 -73.0326
28.8543 -38.9166 -73.108
29.0149 -38.9084 -73.1854
29.1735 -38.9014 -73.2491
29.3297 -38.8958 -73.2957
29.4839 -38.8913 -73.3289
29.6361 -38.888 -73.3491
29.7875 -38.8852 -73.3629
29.9388 -38.8824 -73.3765
30.0904 -38.8794 -73.3918
30.2413 -38.8769 -73.402
30.3906 -38.8753 -73.4022
30.5387 -38.8743 -73.3945
30.6861 -38.8736 -73.3828
30.8327 -38.8735 -73.3658
30.9772 -38.8744 -73.3352
31.1195 -38.8765 -73.292
31.263 -38.8779 -73.2558
31.4097 -38.8777 -73.2398
31.5586 -38.8762 -73.2378
31.7086 -38.8742 -73.2421
31.8598 -38.8715 -73.2539
32.0124 -38.8681 -73.2741
32.1651 -38.8648 -73.2942
32.3186 -38.861 -73.3192
32.4769 -38.8547 -73.373
32.6406 -38.8458 -73.4584
32.807 -38.8355 -73.5585
32.9736 -38.8252 -73.6595
33.1392 -38.8156 -73.7532
33.3003 -38.8082 -73.82
33.456 -38.8035 -73.8547
33.6087 -38.8005 -73.8712
33.7656 -38.7953 -73.9118
33.972 -38.7657 -74.238
34.1563 -38.7473 -74.4343
34.3241 -38.7369 -74.5351
34.4947 -38.7254 -74.65
34.6697 -38.7118 -74.7895
34.8435 -38.6989 -74.9205
35.0184 -38.6856 -75.0567
35.1986 -38.6698 -75.2215
35.3838 -38.6516 -75.4132
35.5732 -38.6317 -75.6265
35.7576 -38.6142 -75.8102
35.9382 -38.5987 -75.9712
36.1102 -38.5874 -76.0837
36.2866 -38.5741 -76.2194
36.5047 -38.5413 -76.5818
36.6793 -38.5291 -76.7046
36.8443 -38.5214 -76.7741
37.0079 -38.5144 -76.8353
37.1701 -38.5081 -76.8888
37.331 -38.5024 -76.9352
37.4919 -38.4968 -76.9803
37.6545 -38.4904 -77.0349
37.8195 -38.483 -77.1013
37.9843 -38.4757 -77.1661
38.1456 -38.47 -77.2117
38.3048 -38.4653 -77.2461
38.4658 -38.4599 -77.2896
38.6342 -38.4511 -77.3712
38.8264 -38.4319 -77.575
9.1538 -38.9803 -76.5511
9.296 -38.9915 -76.3996
9.4377 -39.0033 -76.2415
9.5771 -39.0182 -76.0466
9.7164 -39.0328 -75.8543
9.8553 -39.0477 -75.6592
9.9929 -39.064 -75.4472
10.1288 -39.0824 -75.21
10.2634 -39.102 -74.9577
10.399 -39.12 -74.726
10.5367 -39.1343 -74.5369
10.6769 -39.145 -74.3925
10.821 -39.1501 -74.3147
10.9669 -39.1526 -74.2674
11.1127 -39.1552 -74.2193
11.2587 -39.1574 -74.1753
11.4051 -39.1591 -74.1381
11.5513 -39.1609 -74.0991
11.6967 -39.1637 -74.0481
11.8411 -39.1677 -73.9832
11.986 -39.1709 -73.9278
12.1333 -39.171 -73.9084
12.2806 -39.1711 -73.8897
12.4266 -39.1728 -73.8523
12.5733 -39.1737 -73.8248
12.7218 -39.1723 -73.824
12.8714 -39.1696 -73.8381
13.0207 -39.1674 -73.8473
13.1694 -39.1658 -73.8484
13.3173 -39.1652 -73.8385
13.4642 -39.1656 -73.8162
13.612 -39.165 -73.8058
13.7616 -39.1625 -73.8179
13.9114 -39.1597 -73.8342
14.0611 -39.1571 -73.8471
14.2103 -39.155 -73.8548
14.3583 -39.1543 -73.8456
14.5055 -39.1543 -73.8279
14.6533 -39.1538 -73.8163
14.8016 -39.1527 -73.8123
14.95 -39.1515 -73.8088
15.099 -39.1497 -73.8132
15.2491 -39.1467 -73.8303
15.3985 -39.1445 -73.8387
15.5455 -39.1447 -73.819
15.6907 -39.1467 -73.7773
15.8347 -39.1498 -73.7227
15.9783 -39.1532 -73.6643
16.1229 -39.1555 -73.6191
16.2693 -39.1561 -73.5945
16.4165 -39.1559 -73.5789
16.563 -39.1564 -73.5555
16.7088 -39.1575 -73.525
16.8556 -39.1576 -73.5052
17.0037 -39.1565 -73.501
17.1522 -39.155 -73.5005
17.3004 -39.1538 -73.4966
17.4482 -39.153 -73.4891
17.5952 -39.1528 -73.4727
17.7409 -39.1539 -73.4428
17.8858 -39.1556 -73.404
18.0308 -39.1571 -73.3684
18.1776 -39.1571 -73.3508
18.3246 -39.1568 -73.3359
18.4699 -39.158 -73.3036
18.6147 -39.1596 -73.2668
18.7614 -39.1596 -73.2489
18.9088 -39.1589 -73.2386
19.0557 -39.1587 -73.2227
19.203 -39.1582 -73.2114
19.3517 -39.1564 -73.2143
19.5005 -39.1546 -73.2178
19.6474 -39.1543 -73.2027
19.7928 -39.1553 -73.1731
19.9391 -39.1555 -73.1531
20.0878 -39.1538 -73.1552
20.2373 -39.1514 -73.1651
20.3851 -39.1504 -73.1592
20.5315 -39.1505 -73.1399
20.6779 -39.1505 -73.1215
20.8246 -39.1503 -73.1052
20.9712 -39.1502 -73.0883
21.1182 -39.1497 -73.0755
21.2658 -39.1489 -73.0674
21.413 -39.1482 -73.0569
21.5601 -39.1477 -73.0446
21.7082 -39.1465 -73.0413
21.8577 -39.1442 -73.05
22.0078 -39.1415 -73.0639
22.1576 -39.139 -73.0752
22.306 -39.1375 -73.0743
22.4537 -39.1365 -73.0678
22.6036 -39.134 -73.0793
22.7542 -39.131 -73.0965
22.9065 -39.1269 -73.127
23.0679 -39.1164 -73.2329
23.2317 -39.1044 -73.3568
23.3801 -39.1031 -73.3534
23.53 -39.1007 -73.363
23.6798 -39.0985 -73.371
23.8281 -39.0973 -73.3664
23.9762 -39.0962 -73.361
24.125 -39.0947 -73.3606
24.2732 -39.0936 -73.3551
24.4199 -39.0933 -73.339
24.5666 -39.0932 -73.3218
24.715 -39.0919 -73.3187
24.865 -39.0896 -73.3277
25.0135 -39.0883 -73.3246
25.1587 -39.089 -73.2969
25.3029 -39.0904 -73.2615
25.4479 -39.0913 -73.2322
25.5929 -39.0921 -73.2037
25.7354 -39.0945 -73.1566
25.8745 -39.099 -73.0848
26.0133 -39.1037 -73.0109
26.1544 -39.1068 -72.9555
26.2982 -39.1082 -72.9196
26.4434 -39.1088 -72.8942
26.5894 -39.1087 -72.8755
26.7365 -39.1081 -72.8642
26.8841 -39.1072 -72.8564
27.0318 -39.1062 -72.8495
27.1805 -39.1045 -72.85
27.3307 -39.102 -72.8607
27.4813 -39.0993 -72.8739
27.631 -39.0971 -72.8809
27.7797 -39.0956 -72.8804
27.9287 -39.0938 -72.8828
28.0794 -39.0911 -72.8956
28.2304 -39.0881 -72.9114
28.3812 -39.0854 -72.9249
28.5328 -39.0822 -72.9438
28.6869 -39.0775 -72.9794
28.8445 -39.071 -73.0377
29.0043 -39.0633 -73.1101
29.1637 -39.0558 -73.1794
29.3222 -39.0489 -73.2413
29.4795 -39.0427 -73.2958
29.6353 -39.0374 -73.3391
29.7887 -39.0335 -73.3664
29.941 -39.0302 -73.386
30.0928 -39.0272 -73.4024
30.2432 -39.0249 -73.4101
30.3911 -39.024 -73.4013
30.5374 -39.024 -73.3818
30.6834 -39.0241 -73.3613
30.8289 -39.0245 -73.3373
30.9724 -39.026 -73.3007
31.1146 -39.0281 -73.2569
31.2589 -39.029 -73.2261
31.4073 -39.0279 -73.2206
31.5582 -39.0253 -73.2311
31.7095 -39.0226 -73.2434
31.861 -39.0198 -73.2571
32.013 -39.0168 -73.2736
32.1648 -39.0139 -73.2883
32.3184 -39.0101 -73.3141
32.4794 -39.0025 -73.3838
32.6466 -38.9918 -73.49
32.8139 -38.9812 -73.5958
32.9801 -38.9712 -73.6941
33.146 -38.9615 -73.7893
33.3081 -38.9537 -73.862
33.4664 -38.9478 -73.9113
33.6251 -38.9418 -73.9625
33.7948 -38.9304 -74.0773
33.9887 -38.9072 -74.331
34.1699 -38.8904 -74.5092
34.3381 -38.8801 -74.6114
34.5081 -38.8689 -74.7228
34.684 -38.855 -74.8666
34.8579 -38.8422 -74.9983
35.0323 -38.8292 -75.1313
35.2094 -38.815 -75.2788
35.3881 -38.8002 -75.4335
35.5686 -38.7846 -75.5971
35.746 -38.7705 -75.7425
35.9306 -38.7533 -75.9258
36.1086 -38.7392 -76.0713
36.2809 -38.7278 -76.1849
36.5049 -38.6926 -76.5793
36.6846 -38.6781 -76.7297
36.8464 -38.672 -76.7821
37.0087 -38.6656 -76.8364
37.1712 -38.6592 -76.8917
37.3331 -38.6532 -76.9426
37.4951 -38.647 -76.9944
37.6589 -38.6402 -77.0547
37.8247 -38.6324 -77.1255
37.9899 -38.625 -77.1924
38.1507 -38.6196 -77.2353
38.3091 -38.6153 -77.2654
38.4712 -38.6094 -77.3147
38.6403 -38.6005 -77.3996
8.8664 -39.1139 -76.79
9.0049 -39.1315 -76.5594
9.1453 -39.1456 -76.3718
9.2873 -39.1571 -76.2165
9.4294 -39.1678 -76.0697
9.5699 -39.1807 -75.8971
9.709 -39.1954 -75.7027
9.847 -39.2113 -75.4933
9.9834 -39.2289 -75.2632
10.1193 -39.247 -75.0276
10.2551 -39.2646 -74.7977
10.3916 -39.2809 -74.5845
10.5299 -39.2943 -74.406
10.6724 -39.3015 -74.3008
10.819 -39.3031 -74.2647
10.9662 -39.3037 -74.2394
11.1125 -39.3056 -74.1997
11.2585 -39.3079 -74.155
11.4048 -39.3095 -74.1177
11.5514 -39.3109 -74.084
11.6971 -39.3132 -74.0384
11.8417 -39.3168 -73.9782
11.9867 -39.3198 -73.9235
12.133 -39.3212 -73.8897
12.2799 -39.3219 -73.8639
12.4265 -39.3228 -73.8353
12.574 -39.3225 -73.8211
12.7234 -39.3201 -73.8326
12.8737 -39.3168 -73.8554
13.0228 -39.3147 -73.863
13.1708 -39.314 -73.8538
13.3185 -39.3136 -73.8415
13.466 -39.3133 -73.8274
13.6138 -39.3127 -73.8163
13.7622 -39.3115 -73.8132
13.9109 -39.3099 -73.8146
14.0603 -39.3076 -73.825
14.2102 -39.3049 -73.8402
14.3594 -39.3028 -73.8473
14.5072 -39.3022 -73.8369
14.6544 -39.3022 -73.8188
14.8017 -39.3021 -73.802
14.9496 -39.3015 -73.7924
15.0991 -39.2992 -73.8024
15.2499 -39.2955 -73.8284
15.3991 -39.2935 -73.8344
15.5449 -39.2949 -73.7999
15.6892 -39.2977 -73.7482
15.8332 -39.3007 -73.6948
15.9775 -39.3034 -73.6448
16.1227 -39.3051 -73.6055
16.2687 -39.3061 -73.5763
16.4151 -39.3066 -73.5522
16.5615 -39.3071 -73.5283
16.7078 -39.3076 -73.5038
16.8551 -39.3073 -73.4896
17.0034 -39.306 -73.4876
17.1514 -39.3049 -73.4824
17.2989 -39.3044 -73.4704
17.4462 -39.304 -73.4574
17.593 -39.3041 -73.4388
17.7386 -39.3051 -73.409
17.8839 -39.3064 -73.375
18.0305 -39.3065 -73.3551
18.1785 -39.3054 -73.3508
18.3255 -39.3051 -73.3356
18.4701 -39.3069 -73.2959
18.6143 -39.309 -73.2534
18.7604 -39.3095 -73.2295
18.9078 -39.3088 -73.2197
19.0554 -39.3079 -73.2113
19.2034 -39.3068 -73.2072
19.3522 -39.3049 -73.211
19.5004 -39.3036 -73.2084
19.6468 -39.3038 -73.1886
