16.1757 -75.2365 -74.5231
16.3447 -75.2561 -74.7502
16.5067 -75.2682 -74.894
-20.2484 -75.816 -76.3891
-20.0673 -75.7814 -76.0272
-19.8903 -75.7508 -75.708
-19.714 -75.7205 -75.3912
-19.5389 -75.6909 -75.0834
-19.3672 -75.6646 -74.8107
-19.1994 -75.6423 -74.5813
-19.0349 -75.6232 -74.387
-18.8732 -75.6069 -74.2237
-18.7154 -75.5949 -74.1071
-18.5621 -75.5878 -74.0435
-18.411 -75.5832 -74.0074
-18.2602 -75.5789 -73.9746
-18.1093 -75.5744 -73.9389
-17.9578 -75.5692 -73.8961
-17.8061 -75.5636 -73.8488
-17.6552 -75.5589 -73.8113
-17.5056 -75.5557 -73.791
-17.3554 -75.5518 -73.7618
-17.2041 -75.5463 -73.7161
-17.0522 -75.5401 -73.6619
-16.8998 -75.5332 -73.6002
-16.7466 -75.5251 -73.5254
-16.594 -75.5177 -73.4583
-16.4441 -75.5137 -73.4279
-16.2951 -75.5108 -73.4099
-16.1452 -75.5066 -73.3779
-15.9962 -75.5035 -73.358
-15.8492 -75.5033 -73.3693
-15.7037 -75.5051 -73.4024
-15.5582 -75.507 -73.4363
-15.411 -75.5065 -73.4449
-15.2621 -75.5037 -73.4273
-15.113 -75.5004 -73.405
-14.9663 -75.5007 -73.4218
-14.8206 -75.5024 -73.4538
-14.6724 -75.5006 -73.4478
-14.5233 -75.4972 -73.4243
-14.3737 -75.4932 -73.3936
-14.2242 -75.4892 -73.3635
-14.0756 -75.4864 -73.3466
-13.9274 -75.4845 -73.338
-13.779 -75.4821 -73.3253
-13.6305 -75.4795 -73.3103
-13.4822 -75.4771 -73.2973
-13.3336 -75.4744 -73.2808
-13.1843 -75.4703 -73.2496
-13.0346 -75.4653 -73.2082
-12.8848 -75.4604 -73.1672
-12.7351 -75.4552 -73.1242
-12.5851 -75.4495 -73.0751
-12.4345 -75.4428 -73.0145
-12.283 -75.434 -72.9314
-12.1316 -75.4253 -72.8497
-11.9822 -75.4201 -72.8054
-11.8335 -75.4161 -72.7749
-11.6849 -75.4124 -72.7466
-11.5371 -75.41 -72.7336
-11.3896 -75.4082 -72.7272
-11.2418 -75.4059 -72.7152
-11.0941 -75.4036 -72.7027
-10.9466 -75.4017 -72.6949
-10.7998 -75.4014 -72.7034
-10.6536 -75.4025 -72.7285
-10.5066 -75.4017 -72.7325
-10.3578 -75.3969 -72.6929
-10.2086 -75.3911 -72.6425
-10.0601 -75.3867 -72.6069
-9.9115 -75.3821 -72.5689
-9.763 -75.3774 -72.5307
-9.615 -75.3741 -72.5064
-9.4678 -75.3723 -72.5002
-9.3205 -75.3706 -72.4938
-9.1727 -75.3674 -72.4714
-9.025 -75.3645 -72.4519
-8.8782 -75.3637 -72.4555
-8.7316 -75.3637 -72.469
-8.585 -75.3639 -72.4829
-8.4383 -75.3636 -72.4927
-8.2913 -75.3624 -72.4916
-8.144 -75.3607 -72.4852
-7.9972 -75.3602 -72.4923
-7.8509 -75.3613 -72.5168
-7.7045 -75.3624 -72.5417
-7.5577 -75.3622 -72.5513
-7.4105 -75.3604 -72.5441
-7.2629 -75.3576 -72.5253
-7.1153 -75.3545 -72.5035
-6.9679 -75.3517 -72.4861
-6.8207 -75.35 -72.4796
-6.6735 -75.3482 -72.472
-6.526 -75.3451 -72.4501
-6.3785 -75.3417 -72.4251
-6.2312 -75.3391 -72.4086
-6.0839 -75.3365 -72.3924
-5.9363 -75.3327 -72.3625
-5.7886 -75.3279 -72.3223
-5.6411 -75.3236 -72.2871
-5.4939 -75.3207 -72.2668
-5.3469 -75.3192 -72.2627
-5.2 -75.3179 -72.2607
-5.0529 -75.3151 -72.2419
-4.9056 -75.3116 -72.2156
-4.7586 -75.3094 -72.2032
-4.6117 -75.3076 -72.1953
-4.4646 -75.3046 -72.1743
-4.3176 -75.3015 -72.1519
-4.1707 -75.2997 -72.1445
-4.0238 -75.2984 -72.1416
-3.8769 -75.2957 -72.1236
-3.7299 -75.292 -72.0952
-3.5829 -75.2891 -72.0748
-3.4361 -75.2874 -72.0679
-3.2894 -75.2861 -72.0652
-3.1426 -75.2844 -72.0592
-2.9958 -75.2819 -72.0428
-2.8489 -75.2781 -72.0124
-2.7021 -75.2737 -71.9761
-2.5553 -75.2698 -71.945
-2.4086 -75.2659 -71.9134
-2.2619 -75.2611 -71.8725
-2.1152 -75.255 -71.8177
-1.9686 -75.2486 -71.7589
-1.8221 -75.2436 -71.7151
-1.6756 -75.2407 -71.6942
-1.5291 -75.2397 -71.6953
-1.3826 -75.2393 -71.7027
-1.2361 -75.238 -71.6991
-1.0896 -75.2368 -71.6974
-0.9431 -75.2364 -71.7041
-0.7965 -75.2356 -71.7076
-0.65 -75.2346 -71.7077
-0.5035 -75.2331 -71.7026
-0.3572 -75.2297 -71.6765
-0.2109 -75.2263 -71.6498
-0.0643 -75.2263 -71.6618
0.0824 -75.2267 -71.6767
0.2288 -75.2247 -71.6667
0.3751 -75.2224 -71.6517
0.5215 -75.221 -71.6476
0.6681 -75.22 -71.6479
0.8145 -75.2186 -71.6435
0.9609 -75.2169 -71.6358
1.1073 -75.2154 -71.6307
1.2538 -75.2141 -71.627
1.4001 -75.2124 -71.6204
1.5466 -75.2113 -71.6191
1.6934 -75.2117 -71.6342
1.8402 -75.2119 -71.6477
1.9866 -75.2107 -71.645
2.133 -75.209 -71.6374
2.2795 -75.2078 -71.6352
2.426 -75.2068 -71.6349
2.5726 -75.206 -71.637
2.7195 -75.2066 -71.6544
2.8668 -75.2085 -71.6857
3.0139 -75.2094 -71.7074
3.1605 -75.2085 -71.7083
3.3069 -75.2066 -71.6976
3.4531 -75.2044 -71.6844
3.5996 -75.2031 -71.6803
3.7465 -75.2031 -71.6912
3.8936 -75.2038 -71.7093
4.0406 -75.2041 -71.7241
4.1874 -75.2037 -71.7294
4.3339 -75.2023 -71.7256
4.4805 -75.2012 -71.7233
4.6274 -75.2009 -71.7312
4.7746 -75.2014 -71.7474
4.9218 -75.2021 -71.7649
5.0688 -75.2018 -71.7719
5.2151 -75.1999 -71.7625
5.3616 -75.1984 -71.7557
5.5087 -75.1986 -71.7691
5.6559 -75.1989 -71.7823
5.8024 -75.1973 -71.7755
5.9486 -75.1953 -71.7634
6.0954 -75.1946 -71.7661
6.243 -75.1955 -71.7863
6.3905 -75.1963 -71.8053
6.5377 -75.1964 -71.8176
6.6849 -75.1964 -71.8277
6.8318 -75.1958 -71.8312
6.9782 -75.194 -71.8211
7.1244 -75.1919 -71.8091
7.2709 -75.1905 -71.8036
7.4176 -75.1893 -71.7999
7.5638 -75.1873 -71.7885
7.7094 -75.1841 -71.7634
7.8556 -75.1822 -71.7526
8.0031 -75.1826 -71.7672
8.1504 -75.1826 -71.7775
8.2968 -75.1811 -71.7704
8.4432 -75.1794 -71.7622
8.5895 -75.1778 -71.7544
8.7356 -75.1756 -71.74
8.8812 -75.1728 -71.7191
9.0267 -75.1697 -71.6949
9.1723 -75.1668 -71.6733
9.3186 -75.1652 -71.6649
9.4658 -75.1651 -71.6744
9.6136 -75.1659 -71.6922
9.7612 -75.1663 -71.7074
9.9088 -75.1666 -71.7207
10.0571 -75.1681 -71.746
10.2072 -75.1722 -71.8019
10.3581 -75.1775 -71.8693
10.5076 -75.1803 -71.9104
10.6555 -75.1809 -71.9264
10.8033 -75.1813 -71.9403
10.9515 -75.1821 -71.9596
11.0997 -75.1829 -71.9782
11.2476 -75.1832 -71.991
11.3952 -75.1832 -72.0002
11.5432 -75.1836 -72.0147
11.6915 -75.1844 -72.033
11.8389 -75.1839 -72.0369
11.9857 -75.1826 -72.0325
12.1333 -75.1825 -72.0408
12.2824 -75.1841 -72.0683
12.432 -75.1865 -72.1033
12.5806 -75.1875 -72.1247
12.7279 -75.1868 -72.1261
12.8749 -75.1857 -72.1233
13.0228 -75.1856 -72.1321
13.1712 -75.1863 -72.1491
13.3198 -75.1871 -72.1674
13.4691 -75.1887 -72.1941
13.6194 -75.1915 -72.2337
13.7692 -75.1936 -72.2668
13.9172 -75.1935 -72.2753
14.064 -75.192 -72.2675
14.2117 -75.1916 -72.2725
14.3626 -75.1947 -72.3165
14.5155 -75.2002 -72.3856
14.6698 -75.207 -72.47
14.8271 -75.217 -72.5898
14.9854 -75.228 -72.72
15.1461 -75.2413 -72.8763
15.3134 -75.2614 -73.1082
15.4757 -75.276 -73.2777
15.6439 -75.2964 -73.5132
15.8184 -75.3233 -73.8188
15.9919 -75.3485 -74.1067
16.1677 -75.3757 -74.4164
16.3375 -75.3964 -74.6535
16.5112 -75.4206 -74.9301
-20.4142 -75.985 -76.5816
-20.2288 -75.9462 -76.1756
-20.0495 -75.9132 -75.8329
-19.8742 -75.8841 -75.5325
-19.7006 -75.8562 -75.2453
-19.5286 -75.8297 -74.9731
-19.3597 -75.8063 -74.7339
-19.1951 -75.7873 -74.5416
-19.0331 -75.7708 -74.3775
-18.8719 -75.755 -74.2207
-18.7144 -75.7432 -74.1071
-18.5626 -75.7379 -74.0633
-18.4122 -75.7341 -74.036
-18.261 -75.7293 -73.9979
-18.1092 -75.7237 -73.9513
-17.9574 -75.7181 -73.9041
-17.8056 -75.7124 -73.8566
-17.6545 -75.7074 -73.8163
-17.5044 -75.7036 -73.7887
-17.3547 -75.7003 -73.7665
-17.2041 -75.6958 -73.7314
-17.0522 -75.6894 -73.6765
-16.8992 -75.6817 -73.6068
-16.7462 -75.6738 -73.5348
-16.5943 -75.6673 -73.4778
-16.4444 -75.6633 -73.4475
-16.2952 -75.66 -73.4255
-16.1456 -75.6563 -73.3989
-15.9966 -75.6534 -73.3807
-15.8495 -75.6529 -73.3893
-15.7037 -75.6544 -73.4184
-15.5576 -75.6554 -73.4432
-15.4101 -75.6546 -73.4482
-15.2616 -75.6522 -73.4353
-15.1129 -75.6496 -73.4201
-14.9657 -75.6492 -73.4291
-14.8193 -75.6499 -73.4501
-14.6715 -75.6487 -73.4506
-14.5224 -75.6453 -73.4275
-14.3728 -75.6412 -73.3961
-14.2233 -75.6372 -73.3658
-14.0741 -75.6335 -73.3392
-13.9252 -75.6304 -73.3185
-13.7767 -75.6278 -73.3039
-13.6285 -75.6257 -73.2941
-13.4802 -75.6234 -73.2816
-13.3314 -75.6201 -73.2596
-13.1818 -75.6155 -73.2225
-13.0318 -75.61 -73.1766
-12.8819 -75.6047 -73.132
-12.7327 -75.6005 -73.0987
-12.5837 -75.5965 -73.069
-12.4332 -75.5899 -73.0104
-12.2813 -75.5803 -72.919
-12.1299 -75.5715 -72.8368
-11.9806 -75.5665 -72.7948
-11.832 -75.5628 -72.7672
-11.6835 -75.5591 -72.7407
-11.5356 -75.5565 -72.7252
-11.3879 -75.5544 -72.7148
-11.2405 -75.5526 -72.7086
-11.0934 -75.5518 -72.7126
-10.946 -75.5501 -72.7069
-10.7981 -75.5474 -72.6896
-10.6511 -75.5466 -72.6935
-10.5044 -75.5465 -72.7052
-10.3565 -75.5438 -72.6887
-10.208 -75.5395 -72.6551
-10.0593 -75.5348 -72.6159
-9.9105 -75.5294 -72.5707
-9.7618 -75.5244 -72.5281
-9.6137 -75.5205 -72.4993
-9.4661 -75.518 -72.484
-9.3185 -75.5153 -72.4677
-9.1706 -75.512 -72.4441
-9.0231 -75.5093 -72.4272
-8.8762 -75.5085 -72.4313
-8.7299 -75.5092 -72.4506
-8.5831 -75.5087 -72.4581
-8.4359 -75.5069 -72.4511
-8.2883 -75.504 -72.4312
-8.1407 -75.5009 -72.4105
-7.9937 -75.4998 -72.4101
-7.8474 -75.5007 -72.4327
-7.7011 -75.502 -72.4594
-7.5546 -75.5027 -72.4782
-7.4076 -75.5016 -72.4793
-7.2604 -75.4996 -72.469
-7.1132 -75.4978 -72.4616
-6.9662 -75.4966 -72.4615
-6.8192 -75.4956 -72.4622
-6.672 -75.494 -72.4573
-6.5245 -75.4908 -72.4342
-6.3769 -75.487 -72.4052
-6.2296 -75.4841 -72.3861
-6.0823 -75.4815 -72.3691
-5.9348 -75.4778 -72.3411
-5.7872 -75.4733 -72.3047
-5.6397 -75.469 -72.2697
-5.4924 -75.4657 -72.2455
-5.3454 -75.464 -72.2393
-5.1986 -75.463 -72.2394
-5.0516 -75.4609 -72.2293
-4.9045 -75.4586 -72.2162
-4.7576 -75.4574 -72.2142
-4.6107 -75.4558 -72.2095
-4.4636 -75.4521 -72.181
-4.3163 -75.4479 -72.146
-4.1695 -75.4464 -72.1415
-4.0228 -75.446 -72.1495
-3.8759 -75.4438 -72.1376
-3.7288 -75.4399 -72.1069
-3.5819 -75.4373 -72.0896
-3.4351 -75.4362 -72.0899
-3.2884 -75.4356 -72.0943
-3.1417 -75.4348 -72.0975
-2.9949 -75.4334 -72.0932
-2.848 -75.4305 -72.0737
-2.7011 -75.4266 -72.0424
-2.5543 -75.4219 -72.0035
-2.4075 -75.4173 -71.964
-2.2608 -75.412 -71.9183
-2.1141 -75.4054 -71.8573
-1.9675 -75.3985 -71.794
-1.8209 -75.3931 -71.7465
-1.6744 -75.3894 -71.7175
-1.5279 -75.3877 -71.7107
-1.3814 -75.3871 -71.715
-1.2349 -75.3859 -71.7131
-1.0884 -75.3846 -71.7106
-0.9418 -75.3841 -71.7167
-0.7952 -75.3841 -71.7274
-0.6487 -75.3833 -71.7303
-0.5023 -75.3807 -71.7125
-0.356 -75.3763 -71.6762
-0.2098 -75.3722 -71.643
-0.0633 -75.3716 -71.6471
0.0834 -75.3724 -71.6671
0.23 -75.372 -71.6733
0.3764 -75.3701 -71.6636
0.5228 -75.368 -71.6528
0.6693 -75.3668 -71.6507
0.8158 -75.3661 -71.6532
0.9624 -75.3657 -71.6603
1.1088 -75.364 -71.653
1.2551 -75.3618 -71.6394
1.4014 -75.3595 -71.6253
1.5478 -75.3578 -71.6181
1.6945 -75.3577 -71.6273
1.8412 -75.3579 -71.641
1.9877 -75.3569 -71.641
2.1341 -75.3554 -71.6348
2.2807 -75.3545 -71.6363
2.4274 -75.3543 -71.6446
2.5741 -75.3541 -71.6529
2.721 -75.3544 -71.6672
2.8681 -75.3553 -71.6878
3.015 -75.3557 -71.7028
3.1617 -75.355 -71.7061
3.3081 -75.3535 -71.7007
3.4545 -75.3517 -71.6912
3.6008 -75.3498 -71.6809
3.7474 -75.349 -71.6831
3.8948 -75.3504 -71.7093
4.0422 -75.3519 -71.7359
4.1891 -75.3517 -71.744
4.3354 -75.3499 -71.7355
4.4817 -75.3478 -71.7222
4.6284 -75.3469 -71.7238
4.7756 -75.3475 -71.7405
4.9228 -75.3482 -71.7589
5.0697 -75.3478 -71.7642
5.216 -75.3457 -71.7523
5.3623 -75.3439 -71.7427
5.5096 -75.3445 -71.7595
5.6569 -75.3451 -71.7769
5.8036 -75.3441 -71.7758
5.9502 -75.3429 -71.773
6.0973 -75.3428 -71.7817
6.2447 -75.3434 -71.7995
6.3921 -75.3441 -71.8166
6.5393 -75.344 -71.8266
6.6864 -75.3438 -71.8338
6.8331 -75.3427 -71.8318
6.9793 -75.3405 -71.8188
7.1256 -75.3386 -71.8073
7.2722 -75.3374 -71.8045
7.4189 -75.3363 -71.8027
7.565 -75.334 -71.7872
7.7106 -75.3309 -71.7637
7.8575 -75.3302 -71.7659
8.0057 -75.332 -71.7961
8.1533 -75.3326 -71.8123
8.2996 -75.3306 -71.8008
8.4457 -75.3286 -71.7888
8.5922 -75.3272 -71.7831
8.7384 -75.3251 -71.7699
8.8838 -75.3218 -71.7445
9.0291 -75.3184 -71.7168
9.1749 -75.3158 -71.6981
9.3212 -75.3143 -71.6912
9.468 -75.3134 -71.6919
9.6153 -75.3133 -71.6998
9.7631 -75.3141 -71.7183
9.9112 -75.3153 -71.7413
10.059 -75.3159 -71.7574
10.2069 -75.3167 -71.7758
10.3562 -75.3195 -71.8165
10.5057 -75.3225 -71.8595
10.6551 -75.3254 -71.9001
10.804 -75.3274 -71.9316
10.9523 -75.3284 -71.9519
11.1003 -75.3288 -71.9668
11.248 -75.329 -71.9781
11.3956 -75.3288 -71.9859
11.5434 -75.3291 -71.9982
11.6918 -75.3301 -72.0187
11.8397 -75.3303 -72.0299
11.9865 -75.3291 -72.0264
12.1342 -75.329 -72.0353
12.2835 -75.3309 -72.0658
12.4328 -75.333 -72.0977
12.5813 -75.3338 -72.1158
12.7288 -75.3333 -72.1201
12.8763 -75.3329 -72.1248
13.0241 -75.3328 -72.1331
13.1719 -75.3327 -72.141
13.3196 -75.3324 -72.1475
13.4682 -75.3333 -72.1656
13.619 -75.3367 -72.2122
13.7701 -75.3403 -72.2615
13.9186 -75.3409 -72.2768
14.0652 -75.3392 -72.2674
14.2126 -75.3383 -72.2673
14.3626 -75.3406 -72.3008
14.5146 -75.345 -72.3586
14.6692 -75.3522 -72.4469
14.8274 -75.3634 -72.5781
14.9855 -75.3742 -72.7055
15.1452 -75.3865 -72.85
15.3082 -75.4023 -73.0315
15.4713 -75.4178 -73.2108
15.6362 -75.435 -73.4081
15.8155 -75.4672 -73.77
15.9907 -75.4944 -74.0775
16.1616 -75.5168 -74.3319
16.3353 -75.5416 -74.6129
16.5112 -75.5683 -74.9149
-20.5874 -76.162 -76.8561
-20.3972 -76.1182 -76.3998
-20.2131 -76.0803 -76.0074
-20.0354 -76.0486 -75.6818
-19.8618 -76.021 -75.3995
-19.6907 -75.9956 -75.1409
-19.5212 -75.9716 -74.8973
-19.3543 -75.9502 -74.681
-19.1911 -75.9326 -74.5063
-19.0305 -75.9176 -74.3589
-18.8707 -75.9032 -74.2189
-18.7148 -75.8933 -74.1261
-18.5633 -75.8883 -74.0859
-18.413 -75.8845 -74.0592
-18.2614 -75.8793 -74.017
-18.1093 -75.8733 -73.9664
-17.9573 -75.8675 -73.9174
-17.8058 -75.8621 -73.8731
-17.6545 -75.8568 -73.8305
-17.5035 -75.8519 -73.7908
-17.3532 -75.8478 -73.7608
-17.2031 -75.8438 -73.7311
-17.0516 -75.8381 -73.6838
-16.899 -75.8308 -73.6192
-16.746 -75.8229 -73.5474
-16.594 -75.8162 -73.4887
-16.4437 -75.8115 -73.4518
-16.2944 -75.8082 -73.4294
-16.1452 -75.8051 -73.4095
-15.9968 -75.8029 -73.3993
-15.85 -75.803 -73.4136
-15.7038 -75.8038 -73.4365
-15.5567 -75.8035 -73.4459
-15.4086 -75.8017 -73.4402
-15.2603 -75.7997 -73.4323
-15.1127 -75.7987 -73.4342
-14.9657 -75.7985 -73.4459
-14.8186 -75.7983 -73.457
-14.6705 -75.7966 -73.4521
-14.5214 -75.7933 -73.429
-14.3718 -75.7892 -73.3983
-14.2225 -75.7854 -73.3702
-14.0731 -75.7814 -73.3411
-13.9236 -75.7773 -73.31
-13.775 -75.7745 -73.2923
-13.6267 -75.7722 -73.2808
-13.4781 -75.7693 -73.263
-13.3292 -75.7659 -73.239
-13.1799 -75.7617 -73.2066
-13.0297 -75.756 -73.1583
-12.8796 -75.7501 -73.1084
-12.7306 -75.7463 -73.0805
-12.5821 -75.7432 -73.0598
-12.4316 -75.7364 -72.9994
-12.2802 -75.7278 -72.9193
-12.1292 -75.7196 -72.8441
-11.9793 -75.7136 -72.7918
-11.8305 -75.7092 -72.7578
-11.682 -75.7055 -72.7308
-11.534 -75.7027 -72.7135
-11.3864 -75.7007 -72.7046
-11.2394 -75.7001 -72.7103
-11.0929 -75.7002 -72.7243
-10.9451 -75.6978 -72.7112
-10.7962 -75.6931 -72.6725
-10.6481 -75.6896 -72.6478
-10.5009 -75.6885 -72.6483
-10.3541 -75.688 -72.6554
-10.2067 -75.6864 -72.651
-10.0588 -75.6832 -72.6292
-9.9101 -75.6783 -72.5891
-9.7612 -75.6729 -72.5427
-9.6127 -75.668 -72.5024
-9.4645 -75.664 -72.4716
-9.3166 -75.6606 -72.4471
-9.1688 -75.6571 -72.4222
-9.0211 -75.654 -72.4008
-8.8737 -75.6516 -72.3878
-8.7268 -75.6506 -72.3896
-8.5808 -75.6523 -72.42
-8.4337 -75.6507 -72.4152
-8.2857 -75.6465 -72.3821
-8.1377 -75.6422 -72.3478
-7.9905 -75.6403 -72.3393
-7.8441 -75.6407 -72.3559
-7.6976 -75.6412 -72.3729
-7.5512 -75.6418 -72.3923
-7.4045 -75.6415 -72.401
-7.2574 -75.6399 -72.3954
-7.1106 -75.6394 -72.4024
-6.9641 -75.6402 -72.4233
-6.8176 -75.6409 -72.4422
-6.6705 -75.6395 -72.4397
-6.5229 -75.6357 -72.4109
-6.3752 -75.6315 -72.3777
-6.2278 -75.6284 -72.3559
-6.0806 -75.6259 -72.3408
-5.9333 -75.6229 -72.3205
-5.7858 -75.6192 -72.2921
-5.6384 -75.6153 -72.2618
-5.4911 -75.612 -72.2382
-5.3441 -75.61 -72.2285
-5.1972 -75.6084 -72.2235
-5.0502 -75.6062 -72.2114
-4.9032 -75.6045 -72.2042
-4.7565 -75.604 -72.2108
-4.6096 -75.603 -72.2118
-4.4624 -75.5989 -72.1787
-4.315 -75.5929 -72.1257
-4.1681 -75.591 -72.1164
-4.0215 -75.592 -72.1398
-3.8747 -75.5902 -72.1314
-3.7277 -75.5869 -72.1071
-3.5808 -75.5846 -72.094
-3.4341 -75.584 -72.0998
-3.2874 -75.5839 -72.1098
-3.1406 -75.5834 -72.1155
-2.9938 -75.5824 -72.1168
-2.847 -75.5806 -72.1085
-2.7001 -75.5771 -72.0817
-2.5533 -75.5723 -72.0422
-2.4064 -75.5679 -72.0056
-2.2597 -75.5631 -71.9652
-2.1129 -75.5568 -71.9087
-1.9663 -75.5507 -71.8535
-1.8197 -75.5454 -71.8072
-1.6732 -75.5394 -71.7535
-1.5268 -75.5349 -71.7167
-1.3802 -75.5338 -71.7159
-1.2337 -75.534 -71.7296
-1.0871 -75.5335 -71.7356
-0.9406 -75.5327 -71.7375
-0.794 -75.5325 -71.7465
-0.6474 -75.5318 -71.7501
-0.5009 -75.5293 -71.7337
-0.3547 -75.525 -71.6986
-0.2084 -75.5211 -71.668
-0.062 -75.5194 -71.6601
0.0847 -75.5197 -71.6747
0.2313 -75.5194 -71.6827
0.3777 -75.5173 -71.6706
0.524 -75.5149 -71.6557
0.6704 -75.5131 -71.6469
0.8168 -75.5115 -71.6402
0.9633 -75.5104 -71.6401
1.11 -75.5105 -71.6517
1.2565 -75.5093 -71.649
1.4027 -75.5069 -71.6347
1.549 -75.5045 -71.6196
1.6954 -75.5032 -71.6163
1.8421 -75.5032 -71.627
1.9888 -75.5031 -71.6363
2.1354 -75.5023 -71.6379
2.2821 -75.5021 -71.6465
2.4289 -75.5021 -71.6579
2.5755 -75.5014 -71.6606
2.7222 -75.5009 -71.6657
2.8692 -75.5017 -71.685
3.0162 -75.5022 -71.7015
3.1628 -75.5014 -71.7037
3.3092 -75.4998 -71.6968
3.4555 -75.4979 -71.6867
3.6018 -75.4958 -71.674
3.7484 -75.4949 -71.6749
3.8959 -75.497 -71.708
4.0435 -75.4988 -71.7386
4.1904 -75.4989 -71.7495
4.3369 -75.4973 -71.743
4.483 -75.4947 -71.7251
4.6294 -75.4932 -71.7193
4.7766 -75.4937 -71.7352
4.9239 -75.4947 -71.7558
5.0709 -75.4945 -71.7642
5.2173 -75.4928 -71.7563
5.3639 -75.4916 -71.753
5.511 -75.4918 -71.7654
5.658 -75.4914 -71.7722
5.8046 -75.4903 -71.7695
5.9515 -75.4899 -71.7757
6.099 -75.4907 -71.7943
6.2466 -75.4917 -71.8154
6.3938 -75.4919 -71.8277
6.5406 -75.4911 -71.8293
6.6873 -75.49 -71.8273
6.834 -75.4888 -71.8243
6.9804 -75.4872 -71.8169
7.1269 -75.4856 -71.8101
7.2735 -75.4844 -71.8066
7.42 -75.4829 -71.8005
7.566 -75.4804 -71.7832
7.712 -75.478 -71.7679
7.8595 -75.4784 -71.7819
8.0079 -75.4807 -71.8165
8.1557 -75.4815 -71.8356
8.3021 -75.4798 -71.8272
8.4482 -75.4777 -71.8132
8.5945 -75.4758 -71.8027
8.7405 -75.4734 -71.787
8.886 -75.4703 -71.7634
9.0316 -75.4674 -71.7408
9.1777 -75.4652 -71.7269
9.3241 -75.4638 -71.7213
9.4707 -75.4626 -71.7182
9.6175 -75.4617 -71.7186
9.7651 -75.4621 -71.7327
9.9132 -75.4633 -71.7546
10.0607 -75.4633 -71.7648
10.2075 -75.4625 -71.7657
10.3552 -75.463 -71.7798
10.5045 -75.4657 -71.8195
10.6549 -75.47 -71.8754
10.8045 -75.4732 -71.9195
10.9526 -75.4739 -71.9363
11.1 -75.4737 -71.9437
11.248 -75.4741 -71.9583
11.3962 -75.475 -71.9768
11.5444 -75.4757 -71.9938
11.6924 -75.4762 -72.009
11.84 -75.476 -72.0164
11.987 -75.4751 -72.0153
12.1349 -75.4752 -72.0261
12.284 -75.477 -72.0553
12.433 -75.4787 -72.0824
12.5812 -75.4792 -72.0975
12.7297 -75.48 -72.1157
12.8779 -75.4805 -72.1297
13.0256 -75.4802 -72.1367
13.1733 -75.4799 -72.1424
13.3208 -75.4794 -72.146
13.469 -75.4798 -72.1592
13.6195 -75.4829 -72.2026
13.7705 -75.4865 -72.2502
13.9193 -75.4874 -72.2689
14.0662 -75.486 -72.2633
14.2137 -75.4853 -72.265
14.363 -75.4868 -72.2901
14.5146 -75.4908 -72.342
14.6694 -75.4984 -72.4341
14.8274 -75.5094 -72.5627
14.9853 -75.52 -72.6873
15.1445 -75.532 -72.8259
15.3061 -75.5463 -72.9912
15.4675 -75.5601 -73.1499
15.6297 -75.5746 -73.3163
15.8186 -75.6174 -73.7904
15.9907 -75.6416 -74.0627
16.1579 -75.6603 -74.275
16.3319 -75.6856 -74.5596
16.5063 -75.7111 -74.8454
-20.5759 -76.3012 -76.738
-20.3852 -76.2564 -76.2753
-20.202 -76.2191 -75.8919
-20.0251 -76.188 -75.5749
-19.8526 -76.1613 -75.3042
-19.6831 -76.1374 -75.0636
-19.5154 -76.1152 -74.8409
-19.3498 -76.095 -74.6402
-19.1869 -76.0775 -74.4675
-19.0267 -76.0629 -74.3248
-18.8689 -76.0508 -74.2099
-18.7141 -76.042 -74.1304
-18.5623 -76.0366 -74.0859
-18.4115 -76.0323 -74.0543
-18.2606 -76.0278 -74.0194
-18.1092 -76.0227 -73.979
-17.9579 -76.0176 -73.9385
-17.8066 -76.0125 -73.8975
-17.6555 -76.0074 -73.8569
-17.5044 -76.0023 -73.8164
-17.3532 -75.9971 -73.7742
-17.2021 -75.992 -73.7326
-17.0508 -75.9864 -73.6867
-16.8987 -75.9797 -73.6291
-16.746 -75.9721 -73.5615
-16.5935 -75.9647 -73.4955
-16.4424 -75.959 -73.4482
-16.2931 -75.9557 -73.4264
-16.1449 -75.9538 -73.4198
-15.9974 -75.953 -73.4241
-15.8507 -75.9532 -73.4395
-15.7036 -75.9529 -73.4492
-15.5555 -75.9512 -73.4446
-15.4066 -75.9483 -73.4266
-15.2583 -75.9461 -73.4171
-15.1117 -75.9466 -73.435
-14.9653 -75.9473 -73.4564
-14.8175 -75.9461 -73.4559
-14.6688 -75.9435 -73.4415
-14.5202 -75.9409 -73.4266
-14.3712 -75.9377 -73.4054
-14.2219 -75.934 -73.3796
-14.0725 -75.93 -73.35
-13.9228 -75.9255 -73.3146
-13.7738 -75.922 -73.2901
-13.6252 -75.9192 -73.2737
-13.4762 -75.9156 -73.248
-13.3274 -75.9123 -73.2256
-13.1781 -75.9082 -73.1942
-13.0278 -75.9021 -73.1426
-12.8778 -75.8965 -73.0951
-12.729 -75.893 -73.0707
-12.5795 -75.888 -73.03
-12.4293 -75.8817 -72.9752
-12.2791 -75.8753 -72.9195
-12.1287 -75.8681 -72.8559
-11.9784 -75.8612 -72.7951
-11.8288 -75.8555 -72.7463
-11.6804 -75.8518 -72.7198
-11.5324 -75.8492 -72.7041
-11.3848 -75.847 -72.6937
-11.2382 -75.847 -72.7062
-11.0916 -75.8472 -72.721
-10.9437 -75.8444 -72.7034
-10.7947 -75.8393 -72.6615
-10.6461 -75.8349 -72.6268
-10.4982 -75.8322 -72.61
-10.3511 -75.8309 -72.6088
-10.2043 -75.8304 -72.6165
-10.0573 -75.8297 -72.6208
-9.9095 -75.8268 -72.6026
-9.7608 -75.8217 -72.5601
-9.612 -75.8162 -72.5136
-9.4635 -75.8113 -72.4741
-9.3153 -75.807 -72.4399
-9.167 -75.8025 -72.4045
-9.019 -75.7985 -72.3731
-8.8713 -75.795 -72.3487
-8.7243 -75.7939 -72.3487
-8.5782 -75.7952 -72.3743
-8.4313 -75.7941 -72.3756
-8.2834 -75.79 -72.3438
-8.1354 -75.7855 -72.3079
-7.988 -75.7828 -72.2911
-7.8413 -75.7822 -72.2965
-7.6946 -75.7819 -72.3047
-7.5481 -75.7822 -72.3205
-7.4013 -75.7814 -72.3236
-7.2542 -75.7795 -72.3156
-7.1076 -75.7795 -72.3281
-6.9614 -75.7813 -72.3591
-6.8155 -75.7842 -72.4015
-6.6688 -75.7841 -72.4126
-6.5212 -75.7805 -72.3861
-6.3736 -75.7764 -72.354
-6.2262 -75.7732 -72.3315
-6.079 -75.7707 -72.3162
-5.9318 -75.7682 -72.3015
-5.7846 -75.7656 -72.2856
-5.6374 -75.7628 -72.2671
-5.4901 -75.7596 -72.2449
-5.3429 -75.7566 -72.2245
-5.1958 -75.7538 -72.206
-5.0487 -75.751 -72.1881
-4.9018 -75.7495 -72.1832
-4.7551 -75.7496 -72.1966
-4.6084 -75.7494 -72.2055
-4.4612 -75.7457 -72.1773
-4.3138 -75.7397 -72.1245
-4.1669 -75.7374 -72.1121
-4.0202 -75.7369 -72.1177
-3.8734 -75.7355 -72.1148
-3.7265 -75.7331 -72.0998
-3.5796 -75.731 -72.0893
-3.4329 -75.7304 -72.0938
-3.2862 -75.7305 -72.1064
-3.1394 -75.73 -72.1123
-2.9927 -75.729 -72.1133
-2.8459 -75.7275 -72.1089
-2.699 -75.7249 -72.0917
-2.5522 -75.7214 -72.0655
-2.4054 -75.7181 -72.0413
-2.2586 -75.7139 -72.0076
-2.1118 -75.7086 -71.9619
-1.9651 -75.7038 -71.9224
-1.8185 -75.6994 -71.8855
-1.672 -75.6917 -71.8149
-1.5256 -75.6834 -71.7367
-1.3791 -75.681 -71.7221
-1.2324 -75.6834 -71.7586
-1.0858 -75.6838 -71.774
-0.9392 -75.6823 -71.7695
-0.7927 -75.6807 -71.7632
-0.6461 -75.6794 -71.7607
-0.4996 -75.6776 -71.7518
-0.3533 -75.6745 -71.7299
-0.2069 -75.6715 -71.7083
-0.0604 -75.6699 -71.7018
0.0861 -75.669 -71.7037
0.2326 -75.6672 -71.6949
0.3789 -75.6643 -71.6743
0.5252 -75.6615 -71.656
0.6715 -75.6593 -71.6428
0.8179 -75.6573 -71.6317
0.9645 -75.6574 -71.6435
1.1114 -75.6586 -71.6681
1.2578 -75.657 -71.6615
1.404 -75.6542 -71.642
1.5503 -75.6516 -71.6247
1.6965 -75.6494 -71.6118
1.8431 -75.6489 -71.6166
1.99 -75.6495 -71.6339
2.1368 -75.6501 -71.6515
2.2837 -75.6506 -71.6674
2.4305 -75.6506 -71.6783
2.5769 -75.6491 -71.6724
2.7233 -75.6472 -71.6628
2.8702 -75.6477 -71.6786
3.0174 -75.6491 -71.7034
3.1641 -75.6484 -71.7071
3.3103 -75.6461 -71.6928
3.4565 -75.6438 -71.6785
3.6029 -75.642 -71.6697
3.7497 -75.6418 -71.6778
3.8971 -75.6436 -71.7076
4.0445 -75.6451 -71.7334
4.1915 -75.6452 -71.7457
4.3381 -75.6441 -71.7433
4.4842 -75.6416 -71.7273
4.6307 -75.6402 -71.7229
4.778 -75.641 -71.7411
4.9253 -75.6418 -71.7599
5.072 -75.641 -71.7622
5.2188 -75.6403 -71.7646
5.3659 -75.6404 -71.7752
5.5127 -75.6396 -71.7777
5.6588 -75.6372 -71.7615
5.8051 -75.6354 -71.7519
5.9524 -75.6359 -71.7677
6.1004 -75.6379 -71.7998
6.2483 -75.6396 -71.8283
6.3954 -75.6396 -71.8381
6.5419 -75.6379 -71.8295
6.688 -75.6355 -71.8142
6.8345 -75.634 -71.8073
6.9812 -75.6331 -71.8077
7.1281 -75.6323 -71.8096
7.2748 -75.6312 -71.8074
7.4211 -75.6293 -71.7966
7.5671 -75.6269 -71.7806
7.7136 -75.6254 -71.7744
7.8613 -75.6264 -71.7947
8.0098 -75.6287 -71.8296
8.1576 -75.6297 -71.8502
8.3042 -75.6284 -71.8455
8.4502 -75.6259 -71.8288
8.5962 -75.6234 -71.8115
8.7421 -75.6209 -71.7939
8.888 -75.6184 -71.7773
9.034 -75.6161 -71.7618
9.1801 -75.614 -71.7488
9.3264 -75.6123 -71.7404
9.473 -75.611 -71.7358
9.6198 -75.6102 -71.737
9.7673 -75.6104 -71.7484
9.9153 -75.6114 -71.7687
10.0631 -75.612 -71.7848
10.2097 -75.6107 -71.7808
10.356 -75.609 -71.7721
10.5043 -75.6104 -71.7963
10.6546 -75.6146 -71.8507
10.8042 -75.6177 -71.8937
10.9516 -75.6175 -71.9014
11.0984 -75.6164 -71.8983
11.2467 -75.6175 -71.9196
11.3965 -75.6206 -71.9619
11.5455 -75.6225 -71.9922
11.6935 -75.623 -72.0066
11.8406 -75.6221 -72.0067
11.9875 -75.621 -72.0043
12.1355 -75.6215 -72.018
12.2847 -75.6233 -72.047
12.4334 -75.6246 -72.0705
12.5819 -75.6255 -72.0891
12.7306 -75.6266 -72.1105
12.8788 -75.6271 -72.1248
13.0268 -75.6272 -72.135
13.1752 -75.6279 -72.1513
13.3233 -75.6281 -72.1631
13.4714 -75.6284 -72.1748
13.6207 -75.6299 -72.2008
13.7703 -75.632 -72.2315
13.9188 -75.6325 -72.2462
14.0662 -75.6318 -72.2474
14.2142 -75.6317 -72.2561
14.3638 -75.6335 -72.2836
14.5154 -75.6376 -72.3368
14.6701 -75.645 -72.4263
14.8272 -75.6551 -72.5441
14.9844 -75.6652 -72.6614
15.1433 -75.6769 -72.7965
15.3058 -75.6924 -72.9726
15.4679 -75.7071 -73.1399
15.6314 -75.723 -73.3211
15.8167 -75.7623 -73.754
15.9909 -75.789 -74.051
16.1604 -75.8102 -74.2887
16.3301 -75.8314 -74.5253
-20.567 -76.4429 -76.6488
-20.3763 -76.3978 -76.1857
-20.1937 -76.3607 -75.8078
-20.0171 -76.3297 -75.4941
-19.8452 -76.3035 -75.2301
-19.6769 -76.2807 -75.0035
-19.5109 -76.2601 -74.7997
-19.3462 -76.2408 -74.6093
-19.1829 -76.2227 -74.4319
-19.0232 -76.2086 -74.2958
-18.8676 -76.1989 -74.2071
-18.7131 -76.1904 -74.1307
-18.5604 -76.1839 -74.0756
-18.4096 -76.1795 -74.0432
-18.2593 -76.1758 -74.0171
-18.1089 -76.1718 -73.9886
-17.9583 -76.1676 -73.9577
-17.8075 -76.1631 -73.9228
-17.6565 -76.1582 -73.8852
-17.5057 -76.1535 -73.8491
-17.3543 -76.148 -73.8037
-17.2022 -76.1415 -73.7488
-17.0503 -76.1352 -73.6949
-16.8983 -76.1285 -73.6381
-16.7459 -76.1213 -73.5746
-16.5933 -76.1137 -73.5081
-16.4417 -76.1074 -73.4541
-16.2926 -76.1043 -73.4352
-16.1453 -76.1036 -73.4409
-15.998 -76.1032 -73.4489
-15.85 -76.1015 -73.445
-15.7019 -76.0999 -73.4405
-15.554 -76.0984 -73.4377
-15.405 -76.0952 -73.4178
-15.2566 -76.0931 -73.4078
-15.1105 -76.0942 -73.4331
-14.9644 -76.0954 -73.4591
-14.8163 -76.0937 -73.4541
-14.6672 -76.0905 -73.4329
-14.5187 -76.0881 -73.4206
-14.3706 -76.0863 -73.414
-14.2215 -76.0828 -73.3907
-14.0721 -76.0788 -73.3606
-13.9224 -76.0743 -73.3261
-13.773 -76.0703 -73.2962
-13.624 -76.0668 -73.2719
-13.4749 -76.063 -73.2448
-13.3258 -76.0592 -73.2175
-13.1762 -76.0544 -73.1787
-13.0258 -76.0482 -73.1262
-12.8758 -76.0425 -73.0788
-12.7261 -76.0373 -73.036
-12.5761 -76.0313 -72.9855
-12.4267 -76.0264 -72.9456
-12.2773 -76.0214 -72.9051
-12.1272 -76.0148 -72.8484
-11.9768 -76.0077 -72.7852
-11.8272 -76.0017 -72.7344
-11.6789 -75.9985 -72.7128
-11.5311 -75.9961 -72.6998
-11.3837 -75.9944 -72.6945
-11.2371 -75.9943 -72.7063
-11.0903 -75.994 -72.7154
-10.9421 -75.9908 -72.6938
-10.7934 -75.9862 -72.657
-10.6448 -75.9818 -72.6227
-10.4965 -75.978 -72.5953
-10.3487 -75.9751 -72.5768
-10.2013 -75.9732 -72.5687
-10.0546 -75.9731 -72.5807
-9.908 -75.9731 -72.5925
-9.7601 -75.9699 -72.5708
-9.6115 -75.9649 -72.5298
-9.4629 -75.9596 -72.4865
-9.3142 -75.9543 -72.4415
-9.1656 -75.9487 -72.3947
-9.0173 -75.9439 -72.3554
-8.8697 -75.9408 -72.335
-8.7227 -75.9395 -72.333
-8.576 -75.939 -72.3398
-8.429 -75.9375 -72.3365
-8.2814 -75.9344 -72.3157
-8.1338 -75.9309 -72.2902
-7.9863 -75.9278 -72.2691
-7.8394 -75.9266 -72.2685
-7.6916 -75.9225 -72.2369
-7.5453 -75.9232 -72.2567
-7.3984 -75.9221 -72.2562
-7.2512 -75.9198 -72.2437
-7.1046 -75.9196 -72.2535
-6.9585 -75.9214 -72.2846
-6.8128 -75.9248 -72.3326
-6.6664 -75.9259 -72.3566
-6.5192 -75.924 -72.3476
-6.3719 -75.9211 -72.329
-6.2247 -75.9186 -72.3136
-6.0775 -75.9159 -72.2972
-5.9303 -75.9133 -72.2815
-5.7833 -75.9117 -72.2754
-5.6363 -75.9101 -72.2708
-5.4891 -75.9075 -72.2541
-5.3418 -75.9035 -72.2238
-5.1944 -75.8993 -72.1906
-5.0472 -75.896 -72.1674
-4.9004 -75.8946 -72.1633
-4.7537 -75.8948 -72.1772
-4.6071 -75.8948 -72.1893
-4.4601 -75.8924 -72.1749
-4.3128 -75.888 -72.1395
-4.1658 -75.8847 -72.1159
-4.019 -75.8831 -72.11
-3.8722 -75.8817 -72.1063
-3.7253 -75.8799 -72.099
-3.5785 -75.8779 -72.0887
-3.4317 -75.8763 -72.0833
-3.2849 -75.8759 -72.0903
-3.1382 -75.8757 -72.1003
-2.9915 -75.8748 -72.1011
-2.8447 -75.8736 -72.0997
-2.6979 -75.8722 -72.0965
-2.5511 -75.8707 -72.0912
-2.4043 -75.8683 -72.0777
-2.2575 -75.8646 -72.0485
-2.1107 -75.8598 -72.0086
-1.964 -75.8555 -71.9743
-1.8173 -75.8513 -71.9409
-1.6707 -75.8442 -71.8764
-1.5243 -75.8355 -71.795
-1.3778 -75.8312 -71.7602
-1.2311 -75.8329 -71.7895
-1.0845 -75.8339 -71.8112
-0.9379 -75.8319 -71.8003
-0.7914 -75.8291 -71.7815
-0.6449 -75.8266 -71.7662
-0.4985 -75.8245 -71.7549
-0.352 -75.8226 -71.7455
-0.2054 -75.8213 -71.7415
-0.0589 -75.82 -71.739
0.0876 -75.818 -71.7283
0.2338 -75.8145 -71.7024
0.3801 -75.8113 -71.6786
0.5264 -75.8088 -71.6628
0.6728 -75.8065 -71.6493
0.8192 -75.8048 -71.642
0.9659 -75.8053 -71.6582
1.1126 -75.8056 -71.6718
1.2588 -75.8025 -71.6495
1.4051 -75.7999 -71.6318
1.5515 -75.7986 -71.6292
1.6979 -75.7972 -71.6244
1.8444 -75.7959 -71.6209
1.9913 -75.7966 -71.6393
2.1383 -75.7982 -71.6669
2.2853 -75.7992 -71.6885
2.4321 -75.7992 -71.6985
2.5785 -75.7973 -71.6889
2.7247 -75.7949 -71.6735
2.8714 -75.7946 -71.6806
3.0186 -75.7959 -71.7054
3.1653 -75.7953 -71.7096
3.3116 -75.793 -71.6952
3.4578 -75.7909 -71.683
3.6044 -75.7897 -71.6808
3.7513 -75.79 -71.6939
3.8986 -75.7913 -71.7183
4.0458 -75.7921 -71.7372
4.1927 -75.7918 -71.7445
4.3393 -75.7908 -71.7434
4.4857 -75.7891 -71.7358
4.6326 -75.7887 -71.742
4.78 -75.7901 -71.7665
4.9269 -75.7895 -71.7709
5.0732 -75.7876 -71.7602
5.2201 -75.7873 -71.7673
5.3675 -75.7883 -71.7877
5.5142 -75.7873 -71.787
5.6599 -75.7837 -71.7589
5.806 -75.7812 -71.7428
5.9536 -75.7824 -71.7658
6.1019 -75.7854 -71.8071
6.2498 -75.7872 -71.8362
6.397 -75.7872 -71.8469
6.5433 -75.7852 -71.8353
6.689 -75.782 -71.8103
6.835 -75.7793 -71.7922
6.9818 -75.7784 -71.7914
7.1288 -75.7781 -71.7988
7.2757 -75.7774 -71.8014
7.4221 -75.7757 -71.7931
7.5684 -75.7738 -71.7821
7.7153 -75.7732 -71.7854
7.8633 -75.7746 -71.8106
8.0116 -75.7766 -71.8408
8.1591 -75.777 -71.8551
8.3056 -75.7754 -71.8481
8.4516 -75.773 -71.832
8.5976 -75.7706 -71.8156
8.7437 -75.7683 -71.8005
8.8898 -75.7661 -71.7869
9.0359 -75.764 -71.7743
9.1819 -75.7617 -71.759
9.328 -75.7596 -71.7461
9.4746 -75.7584 -71.7431
9.6217 -75.7581 -71.7487
9.7693 -75.7584 -71.7617
9.9172 -75.7593 -71.781
10.0652 -75.7603 -71.8004
10.2118 -75.7589 -71.7956
10.3575 -75.7563 -71.7765
10.5049 -75.7562 -71.7853
10.654 -75.7586 -71.8206
10.8027 -75.7605 -71.8496
10.9497 -75.7598 -71.852
11.096 -75.7579 -71.8412
11.2447 -75.7596 -71.8684
11.3956 -75.7645 -71.9294
11.5459 -75.7682 -71.9786
11.6942 -75.7692 -71.9982
11.8413 -75.7683 -71.9977
11.9881 -75.7671 -71.9948
12.1366 -75.7681 -72.0145
12.286 -75.7704 -72.0482
12.435 -75.7721 -72.0748
12.5834 -75.7729 -72.0929
12.7314 -75.7731 -72.1043
12.8788 -75.7725 -72.107
13.0269 -75.7728 -72.1192
13.1764 -75.7749 -72.1499
13.3258 -75.7767 -72.1791
13.4739 -75.777 -72.191
13.622 -75.7772 -72.2015
13.7702 -75.7775 -72.2139
13.9182 -75.7775 -72.2225
14.0662 -75.7774 -72.2309
14.2149 -75.7782 -72.2482
14.3649 -75.7806 -72.2823
14.5169 -75.7851 -72.3397
14.6713 -75.7923 -72.425
14.8272 -75.8011 -72.5285
14.9833 -75.81 -72.6324
15.1412 -75.8207 -72.7556
15.3057 -75.8385 -72.9558
15.4736 -75.8598 -73.1918
15.6414 -75.8806 -73.4237
15.8175 -75.9101 -73.7479
15.9913 -75.9366 -74.0403
16.1613 -75.9585 -74.2835
16.33 -75.9787 -74.5091
16.51 -76.0104 -74.8572
-20.5529 -76.579 -76.5013
-20.3667 -76.5383 -76.0876
-20.1855 -76.5024 -75.7253
-20.0104 -76.4728 -75.4285
-19.8394 -76.4472 -75.1738
-19.6721 -76.4254 -74.9582
-19.5076 -76.4064 -74.7732
-19.3447 -76.389 -74.6036
-19.1828 -76.3723 -74.4429
-19.0248 -76.3601 -74.3282
-18.8699 -76.3512 -74.2484
-18.7138 -76.3407 -74.1519
-18.5598 -76.3327 -74.0807
-18.4089 -76.3283 -74.0479
-18.2592 -76.3252 -74.0289
-18.1087 -76.3211 -74.0001
-17.958 -76.3167 -73.9669
-17.8072 -76.3122 -73.9331
-17.6564 -76.3076 -73.8976
-17.5057 -76.3029 -73.8621
-17.3545 -76.2977 -73.8207
-17.2027 -76.2915 -73.7692
-17.0506 -76.285 -73.7135
-16.8984 -76.2781 -73.6544
-16.7461 -76.271 -73.5936
-16.594 -76.264 -73.5327
-16.4425 -76.2578 -73.4813
-16.2933 -76.2546 -73.4604
-16.1456 -76.2535 -73.4618
-15.9972 -76.2514 -73.4529
-15.8479 -76.248 -73.4302
-15.6996 -76.2458 -73.4209
-15.5524 -76.2454 -73.4291
-15.4043 -76.2436 -73.4238
-15.2566 -76.2424 -73.4243
-15.1098 -76.2426 -73.4389
-14.963 -76.2429 -73.4551
-14.815 -76.2412 -73.4501
-14.6658 -76.2379 -73.4279
-14.517 -76.2348 -73.4087
-14.3686 -76.2326 -73.3986
-14.2202 -76.2302 -73.3864
-14.0715 -76.2273 -73.3687
-13.9222 -76.2235 -73.3415
-13.7726 -76.2191 -73.3082
-13.6232 -76.2149 -73.2766
-13.474 -76.2109 -73.2474
-13.3246 -76.2066 -73.2146
-13.1747 -76.2013 -73.1712
-13.0243 -76.195 -73.1176
-12.874 -76.1887 -73.0638
-12.7239 -76.1826 -73.0131
-12.5742 -76.1772 -72.9686
-12.4249 -76.1724 -72.931
-12.2755 -76.1673 -72.8898
-12.1254 -76.1609 -72.8347
-11.9751 -76.1538 -72.7726
-11.826 -76.1488 -72.7317
-11.6778 -76.1456 -72.7106
-11.5301 -76.1434 -72.6999
-11.383 -76.1424 -72.702
-11.2366 -76.1429 -72.7202
-11.0893 -76.1415 -72.7175
-10.9408 -76.1376 -72.6887
-10.7922 -76.1333 -72.6555
-10.6437 -76.1291 -72.6235
-10.4953 -76.1249 -72.5921
-10.347 -76.121 -72.5629
-10.1989 -76.1174 -72.5375
-10.052 -76.1167 -72.5416
-9.9062 -76.1186 -72.5747
-9.7592 -76.1177 -72.577
-9.611 -76.1136 -72.5463
-9.4623 -76.1081 -72.5004
-9.3134 -76.1021 -72.4487
-9.1646 -76.0961 -72.3975
-9.0163 -76.0913 -72.3591
-8.8687 -76.0883 -72.3393
-8.7215 -76.0863 -72.3303
-8.5742 -76.0841 -72.3191
-8.4269 -76.0816 -72.3052
-8.2796 -76.0793 -72.2934
-8.1323 -76.0768 -72.2782
-7.985 -76.0743 -72.2641
-7.8377 -76.0718 -72.2495
-7.6894 -76.0655 -72.1954
-7.5428 -76.0654 -72.2059
-7.3961 -76.0647 -72.2106
-7.2489 -76.0622 -72.1953
-7.1024 -76.0623 -72.2087
-6.9561 -76.0632 -72.2297
-6.8099 -76.0648 -72.258
-6.6635 -76.0656 -72.2783
-6.5168 -76.0654 -72.2882
-6.37 -76.0646 -72.2918
-6.223 -76.0631 -72.2875
-6.0759 -76.0608 -72.2742
-5.9287 -76.0582 -72.2583
-5.7817 -76.0564 -72.2515
-5.6348 -76.0554 -72.2519
-5.4878 -76.0536 -72.2455
-5.3406 -76.0505 -72.2234
-5.1933 -76.0464 -72.192
-5.0461 -76.0429 -72.1666
-4.8991 -76.0408 -72.1563
-4.7524 -76.04 -72.1592
-4.6056 -76.0393 -72.1624
-4.4587 -76.0375 -72.1556
-4.3117 -76.0348 -72.1383
-4.1647 -76.0321 -72.1214
-4.0179 -76.0305 -72.1153
-3.8711 -76.0294 -72.1149
-3.7243 -76.0279 -72.1106
-3.5774 -76.0256 -72.0978
-3.4305 -76.0233 -72.0844
-3.2837 -76.022 -72.0822
-3.137 -76.0217 -72.09
-2.9903 -76.0211 -72.0947
-2.8435 -76.0208 -72.1027
-2.6968 -76.0208 -72.1142
-2.55 -76.02 -72.1168
-2.4032 -76.0179 -72.1053
-2.2563 -76.0143 -72.0793
-2.1096 -76.0099 -72.0433
-1.9628 -76.0052 -72.0045
-1.8161 -76.0004 -71.9646
-1.6695 -75.9945 -71.9139
-1.523 -75.9876 -71.8517
-1.3765 -75.9828 -71.8124
-1.2299 -75.982 -71.8147
-1.0832 -75.9822 -71.8277
-0.9366 -75.9806 -71.8213
-0.7901 -75.9779 -71.8035
-0.6437 -75.9748 -71.7815
-0.4972 -75.9718 -71.7607
-0.3508 -75.9698 -71.7507
-0.2041 -75.9693 -71.7566
-0.0575 -75.9688 -71.7617
0.0888 -75.9654 -71.7361
0.2349 -75.9607 -71.6975
0.3813 -75.9579 -71.6787
0.5277 -75.9566 -71.6749
0.6741 -75.9546 -71.6652
0.8205 -75.9523 -71.6514
0.9669 -75.9507 -71.645
1.1133 -75.9488 -71.6354
1.2594 -75.9455 -71.6111
1.4058 -75.9443 -71.6084
1.5528 -75.9457 -71.6344
1.6995 -75.946 -71.6474
1.846 -75.9445 -71.6425
1.9926 -75.9439 -71.6471
2.1396 -75.9453 -71.6717
2.2867 -75.9466 -71.6964
2.4335 -75.9466 -71.7068
2.58 -75.9453 -71.7027
2.7263 -75.9434 -71.693
2.873 -75.9426 -71.6951
3.0198 -75.9424 -71.7033
3.1664 -75.9416 -71.7058
3.313 -75.9406 -71.7046
3.4596 -75.9395 -71.7041
3.6063 -75.9388 -71.7067
3.7532 -75.9389 -71.7174
3.9003 -75.9395 -71.7344
4.0472 -75.9395 -71.7442
4.1939 -75.9388 -71.7469
4.3407 -75.9381 -71.7505
4.4875 -75.9377 -71.7555
4.6346 -75.9379 -71.7678
4.7818 -75.9385 -71.7845
4.9283 -75.9369 -71.778
5.0745 -75.9345 -71.7624
5.2213 -75.934 -71.7672
5.3686 -75.9348 -71.785
5.5154 -75.934 -71.7869
5.6614 -75.9312 -71.7675
5.8076 -75.9291 -71.7545
5.9551 -75.9299 -71.7733
6.1031 -75.9322 -71.807
6.2508 -75.9334 -71.8306
6.3982 -75.934 -71.8458
6.5449 -75.9329 -71.8442
6.6904 -75.9291 -71.8137
6.8358 -75.9252 -71.7821
6.9822 -75.9234 -71.7727
7.1293 -75.9232 -71.7805
7.2764 -75.9232 -71.7901
7.4234 -75.9226 -71.7934
7.5702 -75.9217 -71.7939
7.7175 -75.922 -71.8066
7.8656 -75.9235 -71.8324
8.0132 -75.9241 -71.8486
8.1598 -75.9229 -71.8452
8.3061 -75.9209 -71.8334
8.4524 -75.919 -71.8225
8.5988 -75.9173 -71.8144
8.745 -75.9152 -71.8023
8.891 -75.913 -71.7875
9.037 -75.9105 -71.7711
9.1827 -75.9078 -71.7515
9.3288 -75.9056 -71.7382
9.4756 -75.9047 -71.7379
9.623 -75.9049 -71.7491
9.7707 -75.9054 -71.7641
9.9184 -75.906 -71.7794
10.0659 -75.9061 -71.7904
10.2126 -75.905 -71.7875
10.3589 -75.9032 -71.7782
10.506 -75.9028 -71.7827
10.6538 -75.9033 -71.7969
10.8015 -75.9037 -71.8109
10.9489 -75.9035 -71.8184
11.0958 -75.9027 -71.8187
11.2439 -75.9035 -71.8367
11.3942 -75.9076 -71.889
11.5449 -75.912 -71.9449
11.6939 -75.914 -71.975
11.8413 -75.9135 -71.9789
11.9887 -75.9132 -71.9846
12.138 -75.9154 -72.0173
12.2879 -75.9184 -72.0577
12.4366 -75.9196 -72.0803
12.5846 -75.9199 -72.0916
12.7318 -75.9191 -72.0921
12.8785 -75.9176 -72.0859
13.0264 -75.9177 -72.0951
13.1765 -75.9206 -72.1349
13.3268 -75.9237 -72.1766
13.4751 -75.924 -72.1892
13.622 -75.9228 -72.1852
13.7693 -75.9219 -72.1848
13.9175 -75.9223 -72.1973
14.0665 -75.9234 -72.218
14.2158 -75.925 -72.2436
14.3663 -75.928 -72.284
14.5189 -75.9332 -72.3485
14.6731 -75.9403 -72.4325
14.8281 -75.948 -72.5234
14.9827 -75.9553 -72.6087
15.1391 -75.9644 -72.7145
15.3047 -75.9837 -72.928
15.4752 -76.008 -73.1954
15.6463 -76.0327 -73.4657
15.8181 -76.0576 -73.74
15.9897 -76.0819 -74.0069
16.1592 -76.1036 -74.2453
16.3286 -76.1246 -74.4779
16.5086 -76.1567 -74.8272
-20.7247 -76.755 -76.7571
-20.5382 -76.7141 -76.3458
-20.3553 -76.6766 -75.9693
-20.1777 -76.6445 -75.6486
-20.0054 -76.6177 -75.3825
-19.8361 -76.5938 -75.1478
-19.6696 -76.5726 -74.941
-19.506 -76.5546 -74.7664
-19.3449 -76.5391 -74.6185
-19.1855 -76.5253 -74.4884
-19.0283 -76.5139 -74.3835
-18.8719 -76.5032 -74.2856
-18.7155 -76.4924 -74.186
-18.5604 -76.483 -74.1015
-18.4089 -76.4778 -74.0614
-18.2596 -76.4752 -74.0469
-18.1088 -76.4707 -74.0137
-17.9569 -76.4649 -73.9665
-17.806 -76.4602 -73.9305
-17.6553 -76.4556 -73.8965
-17.5044 -76.4508 -73.8594
-17.3534 -76.4457 -73.8196
-17.2026 -76.4409 -73.7823
-17.0511 -76.4351 -73.735
-16.8991 -76.4284 -73.6787
-16.7469 -76.4215 -73.6197
-16.595 -76.4147 -73.5626
-16.4439 -76.409 -73.5155
-16.2941 -76.405 -73.4871
-16.1451 -76.402 -73.469
-15.9955 -76.3983 -73.4434
-15.8462 -76.3948 -73.4196
-15.6977 -76.3925 -73.4087
-15.5509 -76.3926 -73.4232
-15.4051 -76.3942 -73.4526
-15.2578 -76.3937 -73.4604
-15.1096 -76.3918 -73.453
-14.9615 -76.39 -73.4477
-14.8133 -76.3881 -73.4404
-14.6643 -76.385 -73.4208
-14.5152 -76.3816 -73.3981
-14.3666 -76.3789 -73.3826
-14.2186 -76.3773 -73.3783
-14.0708 -76.3757 -73.3751
-13.9219 -76.3725 -73.3546
-13.7721 -76.3678 -73.3182
-13.6224 -76.3631 -73.2815
-13.4731 -76.3589 -73.2499
-13.3236 -76.3544 -73.216
-13.1736 -76.3489 -73.1706
-13.0231 -76.3424 -73.1152
-12.8726 -76.3356 -73.0577
-12.7224 -76.3295 -73.0065
-12.573 -76.3246 -72.9671
-12.4237 -76.3198 -72.93
-12.2741 -76.3143 -72.8845
-12.1242 -76.3081 -72.8324
-11.9745 -76.302 -72.7813
-11.8252 -76.2968 -72.7393
-11.6767 -76.2931 -72.7123
-11.5292 -76.2912 -72.705
-11.3818 -76.2895 -72.7
-11.2352 -76.2896 -72.713
-11.0878 -76.2881 -72.71
-10.9395 -76.2845 -72.6841
-10.7911 -76.2804 -72.6542
-10.6427 -76.2764 -72.6246
-10.4943 -76.2723 -72.5938
-10.346 -76.2683 -72.5639
-10.198 -76.265 -72.5413
-10.0509 -76.2638 -72.5412
-9.9047 -76.2647 -72.5627
-9.7579 -76.2644 -72.5713
-9.61 -76.2612 -72.55
-9.4614 -76.256 -72.5073
-9.3124 -76.2496 -72.4531
-9.1636 -76.2434 -72.4001
-9.0153 -76.2386 -72.3623
-8.8677 -76.2356 -72.3427
-8.7202 -76.2328 -72.3249
-8.5727 -76.2298 -72.3055
-8.4253 -76.2271 -72.2887
-8.278 -76.2247 -72.2758
-8.1308 -76.2225 -72.2645
-7.9836 -76.2203 -72.2538
-7.8361 -76.217 -72.2304
-7.6883 -76.2125 -72.1959
-7.5411 -76.2104 -72.1849
-7.3939 -76.2079 -72.1708
-7.2471 -76.2066 -72.1689
-7.1008 -76.2074 -72.1889
-6.9541 -76.2068 -72.1949
-6.8074 -76.206 -72.1977
-6.6607 -76.2057 -72.2056
-6.5142 -76.206 -72.2211
-6.3677 -76.2064 -72.2363
-6.2209 -76.2057 -72.2413
-6.074 -76.204 -72.2346
-5.9269 -76.2019 -72.2241
-5.7799 -76.2 -72.2156
-5.633 -76.1985 -72.2113
-5.4861 -76.1972 -72.2094
-5.3392 -76.1958 -72.2061
-5.1922 -76.1936 -72.1945
-5.0451 -76.1908 -72.1769
-4.8981 -76.1882 -72.161
-4.7511 -76.1858 -72.1473
-4.6041 -76.1836 -72.1357
-4.4572 -76.1817 -72.1271
-4.3104 -76.1804 -72.1245
-4.1636 -76.1794 -72.1251
-4.0169 -76.1786 -72.1274
-3.8701 -76.1776 -72.1285
-3.7232 -76.1759 -72.1217
-3.5763 -76.1734 -72.1076
-3.4295 -76.1713 -72.0959
-3.2827 -76.1699 -72.0922
-3.1359 -76.1689 -72.0932
-2.9892 -76.1688 -72.103
-2.8425 -76.1694 -72.1209
-2.6957 -76.1694 -72.1323
-2.5489 -76.1679 -72.1274
-2.402 -76.1653 -72.1106
-2.2552 -76.1623 -72.0905
-2.1084 -76.1587 -72.0639
-1.9616 -76.154 -72.0257
-1.8149 -76.1488 -71.9818
-1.6683 -76.1436 -71.9383
-1.5217 -76.1384 -71.8947
-1.3752 -76.1341 -71.8605
-1.2286 -76.1317 -71.8458
-1.082 -76.1303 -71.8419
-0.9354 -76.1286 -71.8344
-0.7889 -76.1264 -71.8222
-0.6424 -76.1234 -71.802
-0.496 -76.12 -71.7767
-0.3495 -76.1175 -71.7609
-0.2029 -76.1167 -71.7638
-0.0563 -76.1159 -71.7656
0.0899 -76.1115 -71.7304
0.2359 -76.1057 -71.6799
0.3823 -76.1034 -71.6667
0.529 -76.1035 -71.6782
0.6755 -76.1023 -71.6761
0.8218 -76.0996 -71.6586
0.9679 -76.0963 -71.6339
1.114 -76.0929 -71.6088
1.2603 -76.0904 -71.593
1.407 -76.0905 -71.6043
1.554 -76.0927 -71.6387
1.701 -76.0943 -71.6658
1.8475 -76.0929 -71.661
1.9939 -76.0911 -71.6528
2.1407 -76.0916 -71.6683
2.2878 -76.0929 -71.6928
2.4347 -76.0933 -71.7065
2.5813 -76.0924 -71.7079
2.7278 -76.0913 -71.706
2.8744 -76.0901 -71.7045
3.0209 -76.089 -71.7024
3.1676 -76.0882 -71.7039
3.3144 -76.0881 -71.7134
3.4613 -76.0881 -71.7235
3.6081 -76.0878 -71.7307
3.7549 -76.0874 -71.737
3.9017 -76.087 -71.7421
4.0483 -76.086 -71.7421
4.195 -76.085 -71.7414
4.3418 -76.0847 -71.7484
4.4888 -76.0847 -71.7584
4.6358 -76.0845 -71.7671
4.7826 -76.0841 -71.7724
4.9292 -76.0828 -71.769
5.0756 -76.0811 -71.7613
5.2223 -76.0803 -71.762
5.3693 -76.0801 -71.77
5.5163 -76.0799 -71.7778
5.6631 -76.0791 -71.7796
5.8096 -76.0778 -71.7751
5.9565 -76.0772 -71.7786
6.1037 -76.0775 -71.792
6.2512 -76.0784 -71.8109
6.3994 -76.0806 -71.8445
6.5467 -76.081 -71.8578
6.6918 -76.0762 -71.8172
6.8366 -76.071 -71.7724
6.983 -76.0694 -71.7647
7.1305 -76.07 -71.7807
7.2778 -76.0703 -71.7941
7.4251 -76.0704 -71.8049
7.5722 -76.0702 -71.8119
7.7195 -76.0703 -71.8228
7.867 -76.0708 -71.8373
8.0139 -76.07 -71.8383
8.1599 -76.0674 -71.821
8.306 -76.0651 -71.8062
8.4526 -76.0639 -71.8033
8.5993 -76.0627 -71.8
8.7456 -76.0609 -71.7905
8.8917 -76.0587 -71.7762
9.0374 -76.056 -71.7572
9.1831 -76.053 -71.7352
9.3292 -76.051 -71.7232
9.4763 -76.0507 -71.7297
9.624 -76.0512 -71.7444
9.7715 -76.0515 -71.7568
9.9188 -76.0514 -71.7646
10.0658 -76.0509 -71.7687
10.2128 -76.0502 -71.7707
10.3599 -76.0497 -71.7747
10.5073 -76.0497 -71.784
10.6547 -76.0497 -71.7924
10.8017 -76.0489 -71.7935
10.9491 -76.0488 -71.8012
11.0971 -76.0496 -71.8186
11.2449 -76.05 -71.8322
11.3936 -76.0517 -71.8598
11.5434 -76.055 -71.9034
11.6925 -76.0572 -71.935
11.8403 -76.0574 -71.9461
11.9887 -76.0584 -71.9659
12.1395 -76.0627 -72.0199
12.2896 -76.066 -72.0635
12.4373 -76.0659 -72.0718
12.5847 -76.0654 -72.0751
12.7318 -76.0644 -72.0739
12.8787 -76.0633 -72.0706
13.0268 -76.0636 -72.0827
13.1768 -76.0665 -72.1221
13.327 -76.0695 -72.1622
13.4749 -76.0693 -72.1699
13.621 -76.0671 -72.1548
13.7679 -76.0658 -72.1496
13.9164 -76.0665 -72.1665
14.0662 -76.0688 -72.199
14.2161 -76.071 -72.2311
14.3671 -76.0746 -72.2779
14.5205 -76.0809 -72.3524
14.6752 -76.0886 -72.442
14.8297 -76.0958 -72.5274
14.9833 -76.102 -72.6009
15.1366 -76.1077 -72.6695
15.3053 -76.1306 -72.92
15.4778 -76.1574 -73.2109
15.6451 -76.178 -73.4362
15.8165 -76.2027 -73.706
15.9871 -76.2261 -73.9611
16.1564 -76.2477 -74.1979
16.3272 -76.2706 -74.4477
16.5037 -76.2992 -74.7574
-20.8969 -76.9314 -77.0143
-20.7085 -76.8888 -76.5873
-20.5242 -76.85 -76.2001
-20.3445 -76.8156 -75.8589
-20.1709 -76.7875 -75.5822
-20.0018 -76.764 -75.3525
-19.8349 -76.7427 -75.1455
-19.6696 -76.7228 -74.9535
-19.5062 -76.7048 -74.7814
-19.345 -76.6891 -74.6329
-19.1855 -76.6751 -74.5014
-19.0277 -76.6629 -74.3888
-18.8723 -76.6534 -74.3039
-18.7173 -76.6442 -74.222
-18.5619 -76.6344 -74.1335
-18.4086 -76.627 -74.0708
-18.2585 -76.6234 -74.0465
-18.1081 -76.6194 -74.0185
-17.9566 -76.614 -73.9758
-17.8053 -76.6087 -73.9344
-17.6542 -76.6038 -73.8965
-17.5032 -76.5988 -73.8579
-17.3527 -76.5943 -73.8245
-17.2024 -76.59 -73.7935
-17.0513 -76.5847 -73.7516
-16.8992 -76.578 -73.6951
-16.7472 -76.5712 -73.6375
-16.5957 -76.5651 -73.5873
-16.4447 -76.5595 -73.543
-16.2943 -76.5547 -73.5061
-16.1441 -76.55 -73.4703
-15.9941 -76.5456 -73.4379
-15.8452 -76.5427 -73.4211
-15.6972 -76.5411 -73.4166
-15.5513 -76.5425 -73.4448
-15.4073 -76.5469 -73.503
-15.2596 -76.5459 -73.5055
-15.1099 -76.5417 -73.4749
-14.9607 -76.5383 -73.4516
-14.8119 -76.5354 -73.435
-14.663 -76.5323 -73.4156
-14.514 -76.5292 -73.3957
-14.3656 -76.5269 -73.3846
-14.2181 -76.5259 -73.3867
-14.0702 -76.5244 -73.384
-13.9213 -76.5211 -73.363
-13.7715 -76.5163 -73.3258
-13.6217 -76.5114 -73.2874
-13.4722 -76.5071 -73.2548
-13.3225 -76.502 -73.2151
-13.1721 -76.4958 -73.1635
-13.0214 -76.4889 -73.1038
-12.8708 -76.482 -73.0451
-12.7207 -76.4759 -72.9942
