-1.5261 13.0415 -71.7064
-1.3776 13.0572 -71.7475
-1.229 13.0752 -71.7954
-1.0807 13.0732 -71.7843
-0.9325 13.0611 -71.7436
-0.7845 13.0377 -71.6692
-0.637 12.9976 -71.5458
-0.4884 13.0178 -71.6
-15.9801 13.0993 -72.7483
-15.832 13.1056 -72.7635
-15.6839 13.1118 -72.7781
-15.5371 13.1244 -72.8118
-15.3892 13.1319 -72.8306
-15.2359 13.1116 -72.7665
-15.0835 13.095 -72.7137
-14.9362 13.1054 -72.7409
-14.7898 13.1208 -72.7829
-14.6414 13.126 -72.7944
-14.4858 13.0912 -72.6877
-14.3373 13.0949 -72.6951
-14.1988 13.1566 -72.8739
-14.0428 13.1177 -72.7551
-13.8933 13.1168 -72.7485
-13.744 13.1161 -72.7427
-13.5919 13.0991 -72.6885
-13.442 13.0948 -72.672
-13.2961 13.1153 -72.7286
-13.1418 13.0836 -72.6311
-12.9908 13.0719 -72.5924
-12.8406 13.0651 -72.5683
-12.6915 13.0653 -72.5652
-12.5435 13.0724 -72.5822
-12.3934 13.0658 -72.5586
-12.2401 13.0374 -72.4706
-12.0855 12.9993 -72.3538
-11.94 13.023 -72.42
-11.7914 13.0257 -72.4239
-11.6418 13.0215 -72.4075
-11.4923 13.0179 -72.3928
-11.3425 13.0113 -72.3691
-11.1913 12.994 -72.314
-11.0459 13.0216 -72.3914
-10.9029 13.0675 -72.5232
-10.7549 13.0763 -72.5451
-10.6031 13.0541 -72.4755
-10.4557 13.0672 -72.5099
-10.3092 13.0882 -72.5679
-10.1623 13.1073 -72.6203
-10.0101 13.0798 -72.5348
-9.8586 13.0579 -72.4657
-9.7089 13.0521 -72.4441
-9.5595 13.0475 -72.4262
-9.4111 13.0527 -72.4375
-9.2632 13.0636 -72.4655
-9.1146 13.067 -72.471
-8.9654 13.065 -72.461
-8.8157 13.0577 -72.4348
-8.6658 13.0474 -72.4
-8.5155 13.0326 -72.3519
-8.3656 13.0211 -72.3133
-8.2162 13.0158 -72.2935
-8.067 13.0113 -72.2757
-7.9176 13.0049 -72.2523
-7.7682 12.9967 -72.2237
-7.6184 12.9847 -72.1834
-7.4703 12.9925 -72.2021
-7.3198 12.9696 -72.1298
-7.1732 12.998 -72.2095
-7.0239 12.991 -72.184
-6.8734 12.9665 -72.1072
-6.7235 12.9482 -72.0484
-6.5762 12.969 -72.1052
-6.4299 13.0048 -72.2066
-6.2796 12.98 -72.1285
-6.1293 12.9534 -72.0452
-5.981 12.959 -72.0572
-5.833 12.9703 -72.086
-5.6832 12.9497 -72.0203
-5.5344 12.9446 -72.0005
-5.3849 12.9266 -71.9425
-5.237 12.9409 -71.98
-5.0895 12.9633 -72.0416
-4.9432 13.0189 -72.2015
-4.7945 13.0196 -72.1986
-4.6458 13.021 -72.198
-4.4974 13.0281 -72.2143
-4.3488 13.033 -72.2239
-4.1997 13.0201 -72.1808
-4.0504 13.0023 -72.1232
-3.9015 12.9919 -72.0877
-3.7528 12.9881 -72.0716
-3.6042 12.9896 -72.0709
-3.4552 12.9689 -72.0048
-3.3072 13.0016 -72.0967
-3.1593 13.0432 -72.2148
-3.0104 13.0347 -72.1844
-2.8616 13.0246 -72.1496
-2.7128 13.0116 -72.1063
-2.564 12.9858 -72.0249
-2.4154 12.9857 -72.0194
-2.2668 12.9824 -72.0046
-2.1182 12.9382 -71.869
-1.9698 12.925 -71.8248
-1.8214 12.9144 -71.7882
-1.673 12.9035 -71.7511
-1.5247 12.9033 -71.7453
-1.3763 12.9052 -71.7456
-1.228 12.9026 -71.7327
-1.0797 12.9004 -71.7212
-0.9314 12.898 -71.7088
-0.7833 12.8862 -71.6688
-0.6352 12.8723 -71.6224
-0.4865 12.8949 -71.6838
-0.338 12.9029 -71.7023
-16.44 13.0144 -72.958
-16.2853 12.9889 -72.8788
-16.135 12.9847 -72.8628
-15.9843 12.978 -72.8393
-15.827 12.9384 -72.7181
-15.6802 12.9508 -72.7514
-15.5335 12.964 -72.7869
-15.3834 12.9598 -72.7708
-15.2303 12.9401 -72.7087
-15.0796 12.9325 -72.6826
-14.9335 12.9494 -72.7289
-14.7872 12.9651 -72.7719
-14.6379 12.9653 -72.7688
-14.4856 12.9481 -72.7139
-14.3427 12.984 -72.817
-14.1944 12.99 -72.831
-14.0381 12.9495 -72.7068
-13.8876 12.942 -72.6808
-13.7392 12.947 -72.6918
-13.5892 12.9424 -72.6743
-13.4381 12.9303 -72.6346
-13.291 12.9432 -72.669
-13.1386 12.923 -72.6052
-12.9857 12.8994 -72.5312
-12.835 12.8892 -72.4971
-12.687 12.8956 -72.5123
-12.5403 12.9113 -72.5548
-12.3912 12.9113 -72.5509
-12.2374 12.8796 -72.4528
-12.0842 12.8506 -72.3627
-11.9354 12.8514 -72.3611
-11.7876 12.8596 -72.3816
-11.639 12.8625 -72.3859
-11.4898 12.8607 -72.3766
-11.3401 12.8546 -72.3544
-11.1875 12.8274 -72.2697
-11.0383 12.8246 -72.2572
-10.8978 12.8896 -72.4459
-10.754 12.9307 -72.5637
-10.6003 12.8936 -72.4496
-10.4517 12.8968 -72.4549
-10.3048 12.9137 -72.5009
-10.1565 12.92 -72.5154
-10.0068 12.914 -72.4933
-9.8571 12.9079 -72.471
-9.7073 12.9006 -72.4452
-9.5572 12.8902 -72.4098
-9.4083 12.891 -72.4079
-9.261 12.9064 -72.4494
-9.113 12.915 -72.4706
-8.9638 12.9133 -72.4613
-8.8144 12.9085 -72.4427
-8.6652 12.9063 -72.4319
-8.515 12.8931 -72.3882
-8.364 12.8697 -72.3144
-8.2142 12.8597 -72.2803
-8.0646 12.8506 -72.2489
-7.9152 12.8429 -72.2216
-7.7659 12.8368 -72.1991
-7.6169 12.8339 -72.1861
-7.4678 12.8287 -72.1662
-7.3188 12.826 -72.1536
-7.1708 12.8355 -72.1773
-7.0213 12.8249 -72.1413
-6.8709 12.8001 -72.0632
-6.7217 12.7932 -72.0381
-6.5749 12.8197 -72.1121
-6.4281 12.8502 -72.1978
-6.2765 12.8025 -72.0517
-6.1272 12.7918 -72.0153
-5.9804 12.8237 -72.1052
-5.8306 12.8019 -72.0359
-5.6808 12.7809 -71.969
-5.5339 12.8121 -72.0568
-5.3848 12.8032 -72.0258
-5.2356 12.7895 -71.9805
-5.0881 12.8136 -72.0472
-4.9412 12.8537 -72.1611
-4.7926 12.8576 -72.1681
-4.644 12.8585 -72.1657
-4.4957 12.8696 -72.1939
-4.3471 12.8721 -72.1966
-4.1979 12.8582 -72.1505
-4.0487 12.8411 -72.0947
-3.8999 12.8328 -72.0653
-3.7513 12.8337 -72.0631
-3.6027 12.8346 -72.0607
-3.4541 12.8358 -72.0593
-3.3057 12.8419 -72.0724
-3.1573 12.8589 -72.118
-3.0093 12.8977 -72.2281
-2.8604 12.8804 -72.1718
-2.7114 12.8496 -72.0753
-2.5626 12.8279 -72.0059
-2.4139 12.8117 -71.953
-2.2654 12.7988 -71.9097
-2.1169 12.7845 -71.8622
-1.9684 12.7739 -71.8255
-1.8201 12.766 -71.7971
-1.6717 12.7575 -71.7668
-1.5234 12.7512 -71.743
-1.3751 12.7441 -71.7166
-1.2269 12.7364 -71.6888
-1.0786 12.735 -71.6794
-0.9302 12.7381 -71.6833
-0.7819 12.7398 -71.6831
-0.6335 12.7452 -71.6939
-0.4849 12.761 -71.7354
-0.3364 12.7673 -71.7487
-0.189 12.7322 -71.6394
-16.5863 12.8569 -72.9456
-16.4356 12.8507 -72.9237
-16.287 12.855 -72.9328
-16.1353 12.8436 -72.8955
-15.984 12.8344 -72.8644
-15.8296 12.8092 -72.7858
-15.678 12.7973 -72.7469
-15.5285 12.7962 -72.7399
-15.377 12.7845 -72.7015
-15.2262 12.7764 -72.6736
-15.0775 12.7793 -72.6787
-14.9328 12.8035 -72.7471
-14.7873 12.8243 -72.8052
-14.6369 12.8178 -72.7822
-14.4859 12.8086 -72.7511
-14.3389 12.8215 -72.7856
-14.184 12.7893 -72.6862
-14.0347 12.789 -72.6813
-13.8918 12.8257 -72.7868
-13.7412 12.8179 -72.7597
-13.5884 12.7963 -72.6918
-13.4356 12.7747 -72.6235
-13.2838 12.7585 -72.5716
-13.1352 12.7615 -72.5765
-12.982 12.7359 -72.4965
-12.8302 12.7184 -72.4405
-12.6825 12.7265 -72.4607
-12.5369 12.7494 -72.5249
-12.3878 12.749 -72.5198
-12.235 12.7234 -72.4396
-12.0828 12.7016 -72.3707
-11.9333 12.6979 -72.3557
-11.7856 12.7062 -72.3764
-11.638 12.7162 -72.4022
-11.4888 12.7139 -72.3913
-11.3384 12.7032 -72.3554
-11.187 12.6851 -72.2974
-11.0385 12.6877 -72.3011
-10.8947 12.7269 -72.4135
-10.749 12.7528 -72.4864
-10.5984 12.7399 -72.4437
-10.4488 12.7351 -72.4254
-10.3012 12.746 -72.4535
-10.1526 12.7497 -72.4605
-10.0035 12.7484 -72.4523
-9.855 12.7523 -72.4596
-9.7052 12.7452 -72.4343
-9.5544 12.7283 -72.3798
-9.4059 12.7322 -72.3871
-9.2595 12.7562 -72.4541
-9.1119 12.7694 -72.4891
-8.9614 12.7538 -72.4384
-8.8116 12.7448 -72.4071
-8.6632 12.75 -72.4184
-8.5159 12.7678 -72.4668
-8.3636 12.7315 -72.3545
-8.2121 12.7025 -72.264
-8.062 12.6877 -72.2154
-7.9126 12.6798 -72.1874
-7.7637 12.6773 -72.1757
-7.6151 12.6798 -72.1786
-7.4663 12.6791 -72.172
-7.3172 12.6741 -72.1526
-7.1679 12.666 -72.1239
-7.018 12.6491 -72.0692
-6.8698 12.6552 -72.0826
-6.7208 12.6503 -72.0637
-6.5735 12.6711 -72.1209
-6.4246 12.6667 -72.1032
-6.2741 12.6378 -72.0125
-6.1265 12.6535 -72.0544
-5.9785 12.6641 -72.0813
-5.8294 12.6562 -72.0533
-5.6804 12.6493 -72.028
-5.5321 12.6545 -72.0387
-5.3824 12.6336 -71.9721
-5.2333 12.62 -71.9267
-5.0869 12.6695 -72.069
-4.9393 12.6924 -72.1325
-4.7906 12.6911 -72.1236
-4.6421 12.6956 -72.1323
-4.494 12.7121 -72.1763
-4.3455 12.7153 -72.181
-4.1962 12.6973 -72.1226
-4.0472 12.6863 -72.0853
-3.8988 12.6924 -72.0983
-3.7502 12.6922 -72.093
-3.6015 12.6905 -72.083
-3.4529 12.6915 -72.081
-3.304 12.677 -72.0329
-3.1554 12.6731 -72.0164
-3.0079 12.7425 -72.2173
-2.8588 12.7167 -72.1359
-2.7097 12.6722 -71.9985
-2.5612 12.6701 -71.9873
-2.4125 12.6486 -71.9184
-2.264 12.6373 -71.8796
-2.1156 12.6293 -71.8509
-1.9671 12.6227 -71.8261
-1.8187 12.6177 -71.8061
-1.6704 12.6096 -71.7769
-1.5221 12.5968 -71.7337
-1.3739 12.5839 -71.6902
-1.2257 12.5775 -71.666
-1.0773 12.5804 -71.6696
-0.929 12.586 -71.681
-0.7806 12.5901 -71.6877
-0.6322 12.5961 -71.7005
-0.4836 12.6088 -71.7329
-0.3357 12.5931 -71.6808
-0.1887 12.5417 -71.5231
-16.5783 12.6759 -72.8595
-16.4257 12.6605 -72.8099
-16.2787 12.6721 -72.8409
-16.1321 12.6854 -72.8771
-15.9842 12.6928 -72.8956
-15.8295 12.6662 -72.8127
-15.6755 12.6426 -72.7387
-15.5224 12.6231 -72.6768
-15.3715 12.6144 -72.6474
-15.2217 12.6109 -72.6333
-15.0749 12.6238 -72.6681
-14.9319 12.6572 -72.764
-14.7849 12.6691 -72.7958
-14.6338 12.6594 -72.7629
-14.4837 12.6549 -72.746
-14.3351 12.6582 -72.7521
-14.1856 12.6568 -72.744
-14.0357 12.6535 -72.7302
-13.8871 12.657 -72.7371
-13.7391 12.6643 -72.7549
-13.5869 12.6464 -72.6976
-13.4334 12.6208 -72.6175
-13.2827 12.6111 -72.5846
-13.1334 12.6097 -72.5766
-12.9804 12.5851 -72.4995
-12.826 12.5512 -72.3945
-12.6804 12.5728 -72.4549
-12.5377 12.6144 -72.5751
-12.3849 12.5896 -72.4971
-12.232 12.5638 -72.4162
-12.0808 12.5485 -72.3666
-11.9321 12.5497 -72.366
-11.7846 12.5601 -72.393
-11.6368 12.5681 -72.4128
-11.4876 12.5666 -72.4044
-11.3374 12.557 -72.3715
-11.1876 12.5509 -72.3493
-11.0392 12.5543 -72.3553
-10.8921 12.5683 -72.3929
-10.7444 12.5786 -72.4195
-10.5957 12.5805 -72.421
-10.4469 12.5818 -72.4207
-10.2984 12.5849 -72.4258
-10.1493 12.5837 -72.4178
-10 12.5812 -72.4064
-9.8517 12.586 -72.4164
-9.7023 12.5822 -72.4007
-9.5514 12.5642 -72.3429
-9.4029 12.5674 -72.348
-9.2566 12.5922 -72.4177
-9.1096 12.6107 -72.4683
-8.9584 12.5889 -72.3992
-8.8085 12.5788 -72.3648
-8.6602 12.5839 -72.3755
-8.5125 12.5965 -72.4088
-8.3609 12.5682 -72.32
-8.2104 12.549 -72.2583
-8.0596 12.5261 -72.1855
-7.91 12.5166 -72.1529
-7.7622 12.5276 -72.1811
-7.6144 12.539 -72.2107
-7.4649 12.5292 -72.1769
-7.3143 12.5051 -72.1007
-7.1652 12.4995 -72.0793
-7.0165 12.4985 -72.0719
-6.8678 12.4981 -72.066
-6.7189 12.4933 -72.0472
-6.5717 12.5142 -72.1047
-6.4236 12.5232 -72.1272
-6.2736 12.5017 -72.0583
-6.1246 12.4954 -72.035
-5.976 12.4955 -72.0304
-5.8278 12.5023 -72.046
-5.6798 12.5138 -72.0756
-5.5311 12.5139 -72.0711
-5.3819 12.5014 -72.0292
-5.2321 12.4751 -71.9462
-5.0853 12.5148 -72.0595
-4.9374 12.5303 -72.1011
-4.7887 12.5293 -72.0932
-4.6404 12.5365 -72.1099
-4.4923 12.5522 -72.1519
-4.3437 12.5536 -72.1511
-4.1946 12.5408 -72.1079
-4.046 12.54 -72.1007
-3.8978 12.5544 -72.1387
-3.749 12.5519 -72.1265
-3.6002 12.5413 -72.0899
-3.4515 12.5406 -72.0828
-3.3029 12.5404 -72.0772
-3.1539 12.5128 -71.9902
-3.0061 12.563 -72.1345
-2.8574 12.5555 -72.1072
-2.7083 12.5108 -71.9692
-2.5598 12.5123 -71.9686
-2.4112 12.4959 -71.9147
-2.2627 12.482 -71.868
-2.1142 12.4727 -71.8353
-1.9658 12.4646 -71.806
-1.8174 12.463 -71.7962
-1.6691 12.4566 -71.7719
-1.5208 12.4421 -71.7236
-1.3726 12.4287 -71.6785
-1.2244 12.4264 -71.6665
-1.076 12.4312 -71.6755
-0.9277 12.4359 -71.6844
-0.7794 12.4386 -71.6873
-0.631 12.4426 -71.6937
-0.4827 12.4448 -71.6952
-0.3349 12.4245 -71.6294
-0.1875 12.3893 -71.5194
-16.5759 12.5222 -72.8545
-16.418 12.4813 -72.7285
-16.2713 12.4938 -72.7625
-16.124 12.5034 -72.7876
-15.9784 12.5218 -72.8391
-15.8258 12.5055 -72.7865
-15.6728 12.4869 -72.7273
-15.5206 12.4716 -72.6779
-15.3685 12.4567 -72.6298
-15.2181 12.4505 -72.6077
-15.0717 12.4649 -72.6471
-14.9289 12.4994 -72.7463
-14.7822 12.5131 -72.7837
-14.6295 12.494 -72.7228
-14.4795 12.4899 -72.7068
-14.3319 12.4993 -72.7312
-14.1836 12.5044 -72.7426
-14.0337 12.5007 -72.7277
-13.8834 12.4944 -72.7051
-13.7334 12.4897 -72.6873
-13.583 12.4825 -72.662
-13.4322 12.4724 -72.6277
-13.2821 12.4668 -72.6072
-13.1314 12.4566 -72.573
-12.9781 12.4302 -72.4901
-12.8237 12.3966 -72.3858
-12.6779 12.4166 -72.4416
-12.5349 12.4562 -72.5558
-12.3822 12.4316 -72.4785
-12.2295 12.4071 -72.4011
-12.0795 12.4 -72.3761
-11.9323 12.412 -72.4079
-11.783 12.4095 -72.3965
-11.6344 12.412 -72.3997
-11.4855 12.4124 -72.3967
-11.3361 12.4091 -72.3829
-11.1869 12.4064 -72.3709
-11.0375 12.4031 -72.3568
-10.889 12.4064 -72.3625
-10.741 12.4135 -72.3797
-10.5929 12.4198 -72.3942
-10.4447 12.4255 -72.407
-10.2957 12.4254 -72.4026
-10.1462 12.42 -72.3822
-9.9971 12.4183 -72.3729
-9.8491 12.4263 -72.3925
-9.7003 12.4275 -72.3918
-9.5498 12.413 -72.3442
-9.3992 12.3966 -72.2908
-9.2525 12.417 -72.3476
-9.107 12.4495 -72.4403
-8.9559 12.4285 -72.3732
-8.8053 12.4106 -72.3153
-8.6572 12.418 -72.3332
-8.5094 12.4295 -72.363
-8.3583 12.4051 -72.2858
-8.2085 12.3947 -72.2503
-8.0575 12.3687 -72.1681
-7.9078 12.3578 -72.131
-7.7608 12.3784 -72.1881
-7.6125 12.3833 -72.1984
-7.4625 12.3671 -72.1454
-7.3105 12.3247 -72.0143
-7.1626 12.3335 -72.0361
-7.015 12.3473 -72.0727
-6.866 12.3422 -72.0528
-6.7169 12.3355 -72.0282
-6.5691 12.3472 -72.0586
-6.4208 12.3517 -72.0675
-6.2718 12.3458 -72.0452
-6.1225 12.3351 -72.0086
-5.9735 12.327 -71.9798
-5.8256 12.3387 -72.0099
-5.6779 12.3556 -72.0556
-5.5286 12.3407 -72.0064
-5.3808 12.3573 -72.0513
-5.2308 12.3269 -71.9557
-5.0838 12.3621 -72.0559
-4.9357 12.3731 -72.0839
-4.7872 12.3753 -72.0859
-4.6388 12.382 -72.1011
-4.4904 12.3867 -72.1103
-4.3421 12.3965 -72.1346
-4.193 12.3837 -72.0915
-4.0445 12.3873 -72.0972
-3.8965 12.4068 -72.1505
-3.7477 12.4027 -72.1334
-3.5987 12.3881 -72.0849
-3.4501 12.3849 -72.0705
-3.3016 12.3903 -72.0814
-3.1529 12.3845 -72.0592
-3.0043 12.3817 -72.0457
-2.8557 12.3788 -72.0321
-2.7071 12.374 -72.0129
-2.5584 12.3587 -71.962
-2.4098 12.3428 -71.9095
-2.2613 12.3294 -71.8644
-2.1129 12.3156 -71.8183
-1.9645 12.3037 -71.7774
-1.8162 12.2999 -71.7609
-1.6678 12.2974 -71.7485
-1.5196 12.2874 -71.7136
-1.3713 12.2786 -71.6821
-1.2231 12.2767 -71.6711
-1.0747 12.2818 -71.6811
-0.9264 12.2851 -71.6857
-0.7781 12.2847 -71.6794
-0.6299 12.2826 -71.6678
-0.4818 12.2752 -71.6405
-0.334 12.2589 -71.5865
-0.1858 12.2582 -71.5791
-0.0386 12.2236 -71.4707
-16.4099 12.2999 -72.6402
-16.2648 12.3198 -72.6964
-16.1157 12.3205 -72.6949
-15.9667 12.3217 -72.6949
-15.82 12.3344 -72.7293
-15.6697 12.329 -72.7094
-15.5186 12.3194 -72.6769
-15.3677 12.311 -72.6481
-15.218 12.3082 -72.636
-15.0706 12.3174 -72.66
-14.9217 12.3189 -72.6608
-14.7815 12.3677 -72.8033
-14.6273 12.3408 -72.7191
-14.4748 12.3225 -72.6605
-14.3275 12.3331 -72.6883
-14.1797 12.3409 -72.7078
-14.0302 12.3393 -72.6992
-13.8803 12.3354 -72.6839
-13.7311 12.3351 -72.6791
-13.5816 12.3332 -72.6696
-13.4311 12.3252 -72.6416
-13.2799 12.3123 -72.5992
-13.1272 12.2905 -72.5301
-12.974 12.2644 -72.4479
-12.8221 12.2461 -72.3893
-12.6739 12.251 -72.4
-12.5263 12.2597 -72.4221
-12.3789 12.2701 -72.4491
-12.2268 12.249 -72.3819
-12.0772 12.2447 -72.3651
-11.9323 12.2725 -72.4442
-11.7799 12.2483 -72.3678
-11.6311 12.2494 -72.3671
-11.4822 12.2494 -72.3629
-11.334 12.2542 -72.3733
-11.1851 12.2544 -72.3699
-11.0354 12.2489 -72.3491
-10.8869 12.2514 -72.3525
-10.7387 12.2574 -72.3663
-10.5907 12.2644 -72.3831
-10.4428 12.2726 -72.4033
-10.2938 12.2714 -72.3956
-10.144 12.2646 -72.3711
-9.9951 12.2638 -72.3644
-9.8475 12.2752 -72.3942
-9.6988 12.2769 -72.3951
-9.5492 12.271 -72.373
-9.3982 12.2514 -72.3102
-9.2502 12.2592 -72.3291
-9.1046 12.2903 -72.4179
-8.9533 12.2671 -72.3441
-8.8017 12.2391 -72.2561
-8.6526 12.2362 -72.2428
-8.5071 12.2708 -72.3421
-8.3568 12.2551 -72.2905
-8.2069 12.2427 -72.2489
-8.0563 12.2224 -72.184
-7.9068 12.2132 -72.1519
-7.7588 12.2217 -72.1729
-7.6101 12.2215 -72.1676
-7.4603 12.2075 -72.1211
-7.3094 12.1793 -72.0324
-7.1614 12.1864 -72.0491
-7.0134 12.1957 -72.0722
-6.865 12.1982 -72.0752
-6.7161 12.1942 -72.0586
-6.5677 12.1972 -72.0631
-6.4195 12.2042 -72.0793
-6.2704 12.1971 -72.0533
-6.1209 12.1812 -72.0013
-5.9716 12.1681 -71.9573
-5.8232 12.1705 -71.9596
-5.6741 12.1604 -71.9248
-5.5257 12.1625 -71.9264
-5.3796 12.2116 -72.0685
-5.2305 12.2002 -72.0296
-5.083 12.2254 -72.1002
-4.9338 12.2106 -72.0512
-4.7855 12.219 -72.0715
-4.6369 12.219 -72.0665
-4.4884 12.2197 -72.0639
-4.3415 12.2692 -72.2072
-4.1914 12.2246 -72.0687
-4.0428 12.2266 -72.0698
-3.8948 12.2467 -72.125
-3.7462 12.2454 -72.1161
-3.5971 12.2259 -72.053
-3.4486 12.229 -72.0571
-3.3003 12.2424 -72.0921
-3.1517 12.2453 -72.0961
-3.003 12.2376 -72.0678
-2.8543 12.2278 -72.0335
-2.7057 12.219 -72.0022
-2.5571 12.21 -71.9702
-2.4085 12.1977 -71.9282
-2.26 12.1816 -71.8752
-2.1116 12.1648 -71.8197
-1.9632 12.1477 -71.7635
-1.8149 12.1381 -71.7298
-1.6666 12.136 -71.7182
-1.5183 12.1322 -71.7015
-1.3701 12.1262 -71.6784
-1.2218 12.123 -71.6638
-1.0735 12.1269 -71.6702
-0.9252 12.1329 -71.6828
-0.7769 12.1298 -71.6682
-0.6289 12.1206 -71.6355
-0.4809 12.1073 -71.5905
-0.3329 12.1004 -71.5645
-0.1847 12.1025 -71.5655
-0.0369 12.0892 -71.5204
0.1113 12.0901 -71.5178
-17.0202 12.2188 -72.8667
-16.8729 12.2283 -72.8917
-16.7179 12.202 -72.8092
-16.5633 12.1775 -72.732
-16.4106 12.161 -72.6789
-16.2614 12.1612 -72.676
-16.1126 12.1628 -72.6774
-15.9646 12.1693 -72.6931
-15.8165 12.1747 -72.7057
-15.6665 12.1707 -72.69
-15.5165 12.1669 -72.6752
-15.3666 12.163 -72.6596
-15.2177 12.1645 -72.6605
-15.069 12.1672 -72.6648
-14.9196 12.166 -72.6577
-14.776 12.1959 -72.7436
-14.6261 12.1925 -72.7298
-14.4719 12.1653 -72.6443
-14.3241 12.1728 -72.6632
-14.1768 12.1831 -72.6902
-14.0278 12.1843 -72.69
-13.8778 12.1795 -72.6717
-13.7285 12.179 -72.6663
-13.5794 12.179 -72.6625
-13.4289 12.1709 -72.6342
-13.2765 12.1515 -72.5721
-13.1235 12.1271 -72.4951
-12.971 12.1056 -72.4265
-12.8206 12.096 -72.3938
-12.6726 12.1024 -72.4093
-12.5282 12.1318 -72.4932
-12.3805 12.1405 -72.5155
-12.2259 12.1037 -72.401
-12.0753 12.092 -72.3618
-11.9286 12.1074 -72.4041
-11.7768 12.0875 -72.3404
-11.6275 12.0847 -72.3278
-11.48 12.0946 -72.3535
-11.3323 12.1034 -72.3757
-11.1842 12.109 -72.3884
-11.0351 12.1076 -72.3803
-10.886 12.1064 -72.3725
-10.7373 12.108 -72.3731
-10.5893 12.1152 -72.3904
-10.4414 12.123 -72.4097
-10.2925 12.1234 -72.4065
-10.1426 12.1152 -72.3778
-9.9927 12.1062 -72.3465
-9.8443 12.1104 -72.3548
-9.6961 12.116 -72.3674
-9.5484 12.1272 -72.3966
-9.3991 12.123 -72.3798
-9.25 12.1215 -72.3711
-9.1013 12.123 -72.371
-8.95 12.0985 -72.2933
-8.7986 12.0725 -72.2109
-8.6492 12.0657 -72.1862
-8.5042 12.1057 -72.3016
-8.3556 12.1073 -72.3019
-8.2055 12.0938 -72.2571
-8.0551 12.0748 -72.1958
-7.9059 12.0691 -72.1741
-7.7571 12.0687 -72.1682
-7.608 12.0629 -72.1465
-7.4587 12.0557 -72.1202
-7.3091 12.044 -72.0808
-7.1599 12.036 -72.0523
-7.0121 12.0469 -72.0804
-6.864 12.0545 -72.0986
-6.7144 12.0402 -72.051
-6.5667 12.0541 -72.0881
-6.4184 12.0588 -72.0974
-6.2692 12.0494 -72.0646
-6.1195 12.0322 -72.0084
-5.9702 12.0193 -71.965
-5.821 12.0079 -71.926
-5.6714 11.9864 -71.8569
-5.5236 11.9987 -71.889
-5.3762 12.0202 -71.9487
-5.2283 12.0335 -71.9839
-5.082 12.0836 -72.1294
-4.9323 12.0577 -72.0469
-4.7838 12.0595 -72.0473
-4.6348 12.0492 -72.0116
-4.4862 12.0484 -72.0042
-4.3391 12.0903 -72.1252
-4.1901 12.077 -72.0803
-4.0414 12.0725 -72.0619
-3.8936 12.101 -72.1423
-3.7442 12.0719 -72.0502
-3.5954 12.06 -72.0096
-3.4472 12.0776 -72.0573
-3.2989 12.0917 -72.0947
-3.1504 12.0953 -72.1005
-3.0016 12.0835 -72.06
-2.8529 12.0705 -72.016
-2.7042 12.0585 -71.9749
-2.5558 12.0685 -72
-2.4073 12.0572 -71.9608
-2.2587 12.0385 -71.8997
-2.1102 12.0185 -71.8348
-1.9619 11.999 -71.7711
-1.8136 11.9857 -71.7262
-1.6653 11.9797 -71.7031
-1.517 11.9755 -71.6852
-1.3688 11.9702 -71.6643
-1.2206 11.9651 -71.6436
-1.0723 11.9683 -71.6479
-0.9239 11.9777 -71.6709
-0.7758 11.9734 -71.6528
-0.6278 11.9609 -71.61
-0.4798 11.9496 -71.5708
-0.3318 11.9443 -71.5498
-0.1836 11.9431 -71.5406
-0.0353 11.9487 -71.5522
0.1128 11.9472 -71.5422
-17.0122 12.0393 -72.7837
-16.8676 12.0613 -72.8465
-16.7137 12.0399 -72.7786
-16.5601 12.0197 -72.7144
-16.4079 12.0054 -72.6676
-16.2572 11.9985 -72.6433
-16.1088 12.0021 -72.6505
-15.9619 12.0133 -72.6807
-15.814 12.02 -72.6973
-15.665 12.021 -72.6966
-15.5156 12.0203 -72.6908
-15.3656 12.0163 -72.675
-15.2154 12.0111 -72.6557
-15.0657 12.0078 -72.6422
-14.9179 12.0154 -72.6614
-14.7696 12.02 -72.6715
-14.62 12.0175 -72.6601
-14.4697 12.0115 -72.6383
-14.321 12.0138 -72.6413
-14.1743 12.0279 -72.6799
-14.0256 12.0306 -72.6845
-13.8747 12.0208 -72.6509
-13.7252 12.0182 -72.6394
-13.5759 12.0178 -72.6343
-13.426 12.0129 -72.6156
-13.2738 11.9943 -72.5558
-13.1207 11.9695 -72.4773
-12.9686 11.9502 -72.4153
-12.8189 11.9451 -72.3961
-12.6726 11.9622 -72.4436
-12.5282 11.9919 -72.529
-12.3808 12.0029 -72.558
-12.2285 11.9808 -72.4874
-12.0749 11.95 -72.391
-11.9239 11.9352 -72.3422
-11.7754 11.9381 -72.347
-11.6278 11.9475 -72.3713
-11.4796 11.9526 -72.3823
-11.3312 11.9564 -72.3896
-11.1837 11.9665 -72.4161
-11.0353 11.9708 -72.4249
-10.8856 11.965 -72.403
-10.7361 11.96 -72.384
-10.5873 11.961 -72.3826
-10.4389 11.9655 -72.392
-10.291 11.9735 -72.412
-10.1422 11.9746 -72.411
-9.9913 11.9572 -72.3544
-9.8417 11.9504 -72.3297
-9.6942 11.9629 -72.3629
-9.5463 11.9711 -72.3834
-9.3977 11.9739 -72.3874
-9.2482 11.9686 -72.3673
-9.0984 11.9587 -72.333
-8.9488 11.9511 -72.3059
-8.7986 11.9379 -72.2616
-8.6451 11.8894 -72.1117
-8.5001 11.9277 -72.2224
-8.3535 11.9508 -72.2872
-8.2036 11.9382 -72.2448
-8.0529 11.9169 -72.1764
-7.9038 11.9125 -72.1588
-7.7555 11.9163 -72.1657
-7.6061 11.9084 -72.1373
-7.4571 11.9032 -72.1173
-7.3077 11.8943 -72.0859
-7.1581 11.8814 -72.0427
-7.0098 11.8854 -72.0501
-6.86 11.8682 -71.9939
-6.7124 11.883 -72.0338
-6.5648 11.8977 -72.073
-6.4164 11.9009 -72.078
-6.2675 11.8954 -72.057
-6.1183 11.8854 -72.0223
-5.9691 11.8738 -71.9827
-5.8197 11.8594 -71.9345
-5.6701 11.8391 -71.8688
-5.5214 11.8329 -71.8456
-5.3729 11.8332 -71.8416
-5.2246 11.8355 -71.8437
-5.08 11.9193 -72.0907
-4.9305 11.8978 -72.0213
-4.7819 11.8984 -72.0184
-4.6332 11.8925 -71.9959
-4.4855 11.9154 -72.0598
-4.3367 11.9104 -72.0399
-4.1881 11.9073 -72.0256
-4.0398 11.9148 -72.043
-3.8917 11.9324 -72.0911
-3.7424 11.9063 -72.0079
-3.594 11.909 -72.011
-3.4456 11.9172 -72.0305
-3.2975 11.9375 -72.0866
-3.1489 11.9398 -72.0882
-3.0001 11.921 -72.0268
-2.8514 11.9062 -71.9775
-2.7028 11.8935 -71.9343
-2.5545 11.9185 -72.0042
-2.406 11.9125 -71.981
-2.2574 11.8942 -71.9209
-2.1089 11.872 -71.8491
-1.9605 11.8501 -71.7783
-1.8123 11.8334 -71.723
-1.664 11.8249 -71.6923
-1.5158 11.8215 -71.6767
-1.3675 11.8181 -71.6615
-1.2194 11.8105 -71.6335
-1.0711 11.8119 -71.6323
-0.9228 11.8186 -71.647
-0.7746 11.8142 -71.6287
-0.6266 11.8049 -71.5956
-0.4786 11.7951 -71.5608
-0.3306 11.7898 -71.5394
-0.1825 11.7895 -71.5332
-0.0343 11.7909 -71.532
0.1137 11.7864 -71.513
0.2611 11.7657 -71.4455
-17.0117 11.8943 -72.8044
-16.8651 11.9068 -72.8386
-16.7108 11.8837 -72.7654
-16.5578 11.8664 -72.7097
-16.4043 11.8462 -72.6452
-16.2526 11.8342 -72.6055
-16.1051 11.8419 -72.6253
-15.9586 11.8551 -72.6615
-15.8115 11.8654 -72.6887
-15.6631 11.8695 -72.6976
-15.5147 11.8732 -72.7052
-15.3657 11.8745 -72.7053
-15.2125 11.8538 -72.6393
-15.0612 11.8426 -72.6016
-14.9119 11.8418 -72.5956
-14.7616 11.8353 -72.5722
-14.6118 11.8315 -72.557
-14.4633 11.8349 -72.5636
-14.3177 11.8541 -72.6176
-14.1724 11.876 -72.6797
-14.0226 11.8724 -72.6652
-13.8714 11.8606 -72.6256
-13.722 11.8588 -72.6166
-13.5729 11.8586 -72.6119
-13.4234 11.8564 -72.6015
-13.2723 11.8445 -72.5616
-13.1191 11.8188 -72.4803
-12.9665 11.7965 -72.4092
-12.8172 11.7945 -72.3992
-12.6704 11.8079 -72.4355
-12.523 11.8184 -72.4631
-12.3748 11.8233 -72.474
-12.224 11.8113 -72.4337
-12.0723 11.7923 -72.3725
-11.9215 11.7792 -72.3291
-11.7738 11.7878 -72.3508
-11.6266 11.7998 -72.3831
-11.4783 11.8038 -72.391
-11.3295 11.8051 -72.3906
-11.1815 11.8116 -72.4061
-11.0336 11.8192 -72.4249
-10.885 11.8215 -72.4276
-10.735 11.8137 -72.4
-10.5848 11.8034 -72.3647
-10.4357 11.8016 -72.3551
-10.2887 11.8167 -72.3963
-10.1419 11.8342 -72.445
-9.9911 11.8184 -72.393
-9.841 11.8077 -72.3565
-9.6926 11.812 -72.3653
-9.5433 11.8081 -72.349
-9.3946 11.8094 -72.3487
-9.2455 11.8064 -72.3352
-9.0957 11.7974 -72.3037
-8.9474 11.8021 -72.3137
-8.7981 11.7976 -72.2956
-8.643 11.7329 -72.0963
-8.498 11.7709 -72.2065
-8.351 11.7892 -72.257
-8.2009 11.7753 -72.2108
-8.0506 11.7576 -72.1529
-7.902 11.7577 -72.1487
-7.7536 11.7609 -72.1539
-7.6045 11.7566 -72.1365
-7.4554 11.7506 -72.1139
-7.3062 11.7433 -72.0872
-7.1567 11.7323 -72.0494
-7.0083 11.7341 -72.0502
-6.8593 11.7289 -72.03
-6.7113 11.7375 -72.0515
-6.563 11.7416 -72.0591
-6.4143 11.74 -72.0495
-6.2656 11.7385 -72.0404
-6.1169 11.7361 -72.0286
-5.9681 11.7311 -72.0086
-5.8188 11.719 -71.9675
-5.6693 11.7 -71.9056
-5.5204 11.6907 -71.873
-5.3705 11.6628 -71.7841
-5.2226 11.6715 -71.8053
-5.0783 11.7621 -72.0735
-4.9289 11.7428 -72.0107
-4.7806 11.7506 -72.0293
-4.632 11.7483 -72.0174
-4.4836 11.752 -72.0237
-4.3347 11.7427 -71.9907
-4.186 11.7351 -71.963
-4.0378 11.7469 -71.9937
-3.8897 11.7594 -72.0262
-3.7407 11.7406 -71.9648
-3.5923 11.7463 -71.9769
-3.4438 11.7467 -71.9731
-3.296 11.7794 -72.0666
-3.1476 11.7921 -72.0998
-2.9986 11.7587 -71.9942
-2.85 11.7547 -71.977
-2.7016 11.7571 -71.979
-2.5531 11.764 -71.9949
-2.4046 11.7579 -71.9715
-2.2561 11.7449 -71.9271
-2.1076 11.7233 -71.857
-1.9592 11.6977 -71.7746
-1.811 11.6783 -71.7112
-1.6627 11.6724 -71.6883
-1.5144 11.6716 -71.6806
-1.3662 11.6697 -71.6698
-1.218 11.6639 -71.6469
-1.0699 11.6563 -71.619
-0.9217 11.6582 -71.6193
-0.7735 11.659 -71.6166
-0.6254 11.6526 -71.592
-0.4774 11.6422 -71.5554
-0.3294 11.6378 -71.5367
-0.1812 11.6391 -71.5352
-0.0331 11.6389 -71.5293
0.115 11.6375 -71.5196
0.2634 11.6464 -71.541
-17.1558 11.7278 -72.764
-17.008 11.7344 -72.7805
-16.8565 11.7246 -72.7473
-16.7024 11.7018 -72.6747
-16.5571 11.7202 -72.7269
-16.405 11.7068 -72.6828
-16.2509 11.6834 -72.6085
-16.1029 11.6889 -72.6215
-15.9566 11.7032 -72.6609
-15.8086 11.7087 -72.674
-15.6592 11.708 -72.6681
-15.5124 11.7197 -72.7001
-15.3667 11.7379 -72.7511
-15.208 11.6885 -72.5984
-15.0586 11.6873 -72.5911
-14.9053 11.6652 -72.5205
-14.7551 11.6591 -72.4984
-14.6056 11.6566 -72.4869
-14.4592 11.6708 -72.5262
-14.3155 11.7004 -72.6118
-14.17 11.7209 -72.67
-14.0194 11.7125 -72.6406
-13.8684 11.7022 -72.6058
-13.7192 11.7015 -72.5997
-13.5701 11.7011 -72.5947
-13.4197 11.6938 -72.5687
-13.2697 11.688 -72.5473
-13.1189 11.6771 -72.5104
-12.9647 11.6448 -72.409
-12.8163 11.6484 -72.4158
-12.6711 11.6724 -72.4844
-12.5213 11.667 -72.4641
-12.3672 11.6336 -72.359
-12.2155 11.6145 -72.2974
-12.0682 11.6251 -72.3254
-11.9191 11.6236 -72.3169
-11.7694 11.6175 -72.2943
-11.6227 11.6327 -72.3363
-11.4756 11.6454 -72.3703
-11.3272 11.6492 -72.3777
-11.1803 11.6643 -72.4192
-11.0334 11.6788 -72.4589
-10.8833 11.6705 -72.4296
-10.7337 11.6653 -72.4099
-10.5821 11.6436 -72.3401
-10.4322 11.6352 -72.3105
-10.2858 11.6551 -72.3663
-10.1403 11.6832 -72.4467
-9.9911 11.6813 -72.4368
-9.8398 11.6598 -72.3676
-9.6875 11.6298 -72.2728
-9.5403 11.6441 -72.3117
-9.393 11.6582 -72.3498
-9.2435 11.6513 -72.3245
-9.0929 11.635 -72.2712
-8.9447 11.6401 -72.282
-8.7967 11.6479 -72.3011
-8.6459 11.6271 -72.234
-8.4968 11.6233 -72.2182
-8.348 11.6234 -72.214
-8.1984 11.6133 -72.1789
-8.0487 11.6023 -72.1414
-7.9 11.6013 -72.1338
-7.7516 11.6043 -72.1384
-7.6029 11.6042 -72.1335
-7.454 11.6008 -72.1186
-7.3048 11.5942 -72.0941
-7.1558 11.5887 -72.073
-7.0072 11.5886 -72.0683
-6.8588 11.5918 -72.0731
-6.7105 11.5968 -72.0836
-6.5617 11.5933 -72.0685
-6.4125 11.5848 -72.0381
-6.2639 11.5835 -72.0294
-6.1154 11.5838 -72.0256
-5.9666 11.5804 -72.0108
-5.8175 11.5713 -71.9784
-5.6683 11.5583 -71.9345
-5.5195 11.5518 -71.91
-5.3698 11.5259 -71.8271
-5.2206 11.5102 -71.775
-5.0752 11.5746 -71.9645
-4.9276 11.5967 -72.0266
-4.7788 11.5909 -72.0041
-4.6294 11.5682 -71.9306
-4.4811 11.5714 -71.9355
-4.3326 11.5703 -71.9274
-4.1841 11.5696 -71.9201
-4.036 11.5802 -71.9473
-3.8878 11.5921 -71.9781
-3.7389 11.575 -71.9216
-3.5909 11.5929 -71.9706
-3.4424 11.5931 -71.9664
-3.2948 11.6398 -72.1021
-3.146 11.6267 -72.0575
-2.9969 11.588 -71.9357
-2.8487 11.6034 -71.9771
-2.7002 11.6061 -71.9803
-2.5517 11.6021 -71.9632
-2.4032 11.5969 -71.9422
-2.2547 11.5898 -71.9158
-2.1063 11.5705 -71.8523
-1.9579 11.5423 -71.7622
-1.8096 11.527 -71.711
-1.6614 11.5235 -71.695
-1.5131 11.5214 -71.6836
-1.3649 11.5202 -71.6746
-1.2168 11.5102 -71.6393
-1.0687 11.4988 -71.5996
-0.9205 11.504 -71.6102
-0.7722 11.5097 -71.6219
-0.6241 11.5042 -71.6001
-0.4761 11.4931 -71.5613
-0.3281 11.4882 -71.541
-0.18 11.4887 -71.5373
-0.032 11.4845 -71.5192
0.1161 11.4822 -71.5069
0.2644 11.4885 -71.5205
-17.1436 11.5303 -72.6255
-16.9946 11.5311 -72.6244
-16.8504 11.5536 -72.6892
-16.6994 11.5455 -72.661
-16.5524 11.5556 -72.6882
-16.4001 11.5413 -72.6412
-16.2518 11.5451 -72.6491
-16.1023 11.5439 -72.6419
-15.9542 11.549 -72.6536
-15.8032 11.5398 -72.6221
-15.6542 11.5407 -72.6213
-15.5117 11.5741 -72.7186
-15.3598 11.5606 -72.6742
-15.2031 11.5218 -72.5531
-15.0535 11.5187 -72.5399
-14.9034 11.5137 -72.5209
-14.7564 11.5246 -72.5503
-14.6067 11.5212 -72.5362
-14.457 11.5173 -72.5207
-14.3119 11.5395 -72.5842
-14.1672 11.564 -72.6544
-14.0145 11.5439 -72.5897
-13.8638 11.5342 -72.5566
-13.7162 11.543 -72.5793
-13.5666 11.5399 -72.5661
-13.4144 11.5213 -72.5059
-13.2633 11.5087 -72.4636
-13.1176 11.5284 -72.5195
-12.965 11.5063 -72.4486
-12.8169 11.5117 -72.4609
-12.6693 11.5207 -72.4842
-12.5182 11.5069 -72.4384
-12.3656 11.4831 -72.3625
-12.2145 11.4684 -72.3138
-12.0666 11.4748 -72.3292
-11.9176 11.4738 -72.3222
-11.7672 11.463 -72.2853
-11.6191 11.4681 -72.2966
-11.4737 11.4927 -72.3669
-11.3261 11.5023 -72.3919
-11.1799 11.5223 -72.4483
-11.0293 11.5096 -72.4058
-10.8778 11.49 -72.3424
-10.7304 11.5013 -72.3723
-10.5802 11.4902 -72.3346
-10.4292 11.4728 -72.2775
-10.2836 11.4991 -72.3528
-10.1376 11.5229 -72.4207
-9.989 11.5256 -72.4245
-9.8367 11.4958 -72.3302
-9.6832 11.4547 -72.2013
-9.5387 11.4927 -72.3119
-9.3928 11.5196 -72.3891
-9.2409 11.4914 -72.2995
-9.0907 11.4775 -72.253
-8.9426 11.4845 -72.2697
-8.7954 11.4993 -72.3101
-8.6465 11.4988 -72.3042
-8.4953 11.4739 -72.2245
-8.3458 11.4649 -72.1927
-8.1964 11.457 -72.1644
-8.047 11.4492 -72.1364
-7.8979 11.4442 -72.1166
-7.7492 11.444 -72.1115
-7.6008 11.4463 -72.114
-7.452 11.4441 -72.1027
-7.3031 11.4414 -72.0899
-7.1544 11.4392 -72.0788
-7.0058 11.4392 -72.0742
-6.8574 11.4426 -72.0797
-6.7091 11.4463 -72.0864
-6.5604 11.4453 -72.0786
-6.4114 11.4398 -72.0573
-6.2624 11.4329 -72.0317
-6.1135 11.4264 -72.0074
-5.9646 11.4198 -71.9828
-5.8157 11.4129 -71.9572
-5.6668 11.4067 -71.9338
-5.5179 11.3982 -71.9031
-5.3683 11.3746 -71.8271
-5.2198 11.3734 -71.8187
-5.0728 11.4037 -71.9054
-4.9259 11.4397 -72.0093
-4.7775 11.4417 -72.0106
-4.628 11.4154 -71.9261
-4.4786 11.3919 -71.8502
-4.3307 11.4056 -71.8869
-4.1829 11.4233 -71.9355
-4.0343 11.4188 -71.9168
-3.8861 11.427 -71.9367
-3.7376 11.4264 -71.9298
-3.5893 11.4314 -71.94
-3.441 11.4396 -71.9597
-3.2931 11.4721 -72.053
-3.1441 11.4401 -71.9512
-2.9955 11.434 -71.9277
-2.847 11.429 -71.9075
-2.6989 11.4552 -71.9816
-2.5503 11.4434 -71.9409
-2.4018 11.4361 -71.9138
-2.2534 11.4322 -71.8968
-2.1049 11.4172 -71.8462
-1.9566 11.3913 -71.7626
-1.8083 11.3792 -71.7211
-1.6601 11.3728 -71.6965
-1.512 11.3535 -71.6328
-1.3638 11.3452 -71.6027
-1.2153 11.378 -71.6963
-1.0675 11.34 -71.5764
-0.9192 11.3545 -71.6149
-0.7708 11.3648 -71.6407
-0.6228 11.3563 -71.6097
-0.4748 11.3462 -71.5737
-0.3268 11.3392 -71.5472
-0.1788 11.3338 -71.5255
-0.0309 11.3282 -71.5032
0.1171 11.3242 -71.4857
0.2649 11.3161 -71.456
0.4129 11.3156 -71.449
-17.4563 11.4504 -72.8507
-17.3015 11.426 -72.7729
-17.1437 11.3878 -72.6536
-16.9952 11.391 -72.6598
-16.8503 11.4106 -72.7158
-16.6976 11.3943 -72.6628
-16.5408 11.3591 -72.5524
-16.3976 11.387 -72.6335
-16.2534 11.4103 -72.7004
-16.1012 11.3959 -72.6532
-15.948 11.3766 -72.5912
-15.7933 11.3488 -72.5029
-15.6519 11.3873 -72.616
-15.5063 11.4049 -72.666
-15.35 11.3685 -72.5519
-15.1999 11.3634 -72.5326
-15.0519 11.3688 -72.5453
-14.9037 11.3734 -72.5553
-14.7551 11.3756 -72.5585
-14.606 11.3758 -72.5552
-14.4557 11.3689 -72.5304
-14.3069 11.3703 -72.5309
-14.1579 11.3707 -72.5283
-14.0063 11.3561 -72.48
-13.8618 11.3818 -72.5542
-13.7147 11.3933 -72.5852
-13.5635 11.3809 -72.5437
-13.4105 11.3571 -72.4677
-13.2576 11.3333 -72.3914
-13.1092 11.3367 -72.3979
-12.9593 11.3306 -72.3753
-12.8126 11.3446 -72.4139
-12.6643 11.3488 -72.4227
-12.5141 11.3407 -72.3942
-12.3635 11.3291 -72.3549
-12.2137 11.3231 -72.3328
-12.0653 11.3267 -72.3396
-11.9163 11.3252 -72.331
-11.7663 11.3173 -72.3028
-11.6177 11.3189 -72.3037
-11.4703 11.3292 -72.3307
-11.3262 11.3641 -72.4325
-11.1808 11.3897 -72.5059
-11.0273 11.356 -72.3996
-10.8771 11.3461 -72.3654
-10.7283 11.346 -72.3611
-10.5794 11.3459 -72.3565
-10.4295 11.3379 -72.3279
-10.2811 11.3413 -72.3339
-10.1336 11.3521 -72.3625
-9.9844 11.3493 -72.3496
-9.8334 11.3302 -72.2876
-9.6852 11.3357 -72.2999
-9.5386 11.3553 -72.355
-9.3886 11.3444 -72.3177
-9.2376 11.3237 -72.2502
-9.0886 11.3218 -72.2401
-8.9409 11.3317 -72.266
-8.794 11.3503 -72.3179
-8.6455 11.3537 -72.3238
-8.4944 11.3294 -72.2455
-8.344 11.3117 -72.1874
-8.1948 11.3056 -72.1644
-8.0453 11.2964 -72.1321
-7.8957 11.286 -72.0961
-7.7465 11.2795 -72.0717
-7.5976 11.2752 -72.0541
-7.4485 11.2688 -72.0301
-7.3006 11.2771 -72.0509
-7.1528 11.2882 -72.0797
-7.0039 11.2837 -72.0615
-6.8553 11.284 -72.0578
-6.7071 11.2893 -72.0692
-6.5589 11.2949 -72.0815
-6.4103 11.2941 -72.0745
-6.2612 11.2854 -72.0436
-6.1119 11.274 -72.0043
-5.9626 11.2604 -71.9582
-5.8137 11.253 -71.9309
-5.6651 11.2512 -71.9208
-5.5164 11.2469 -71.9032
-5.3677 11.2416 -71.8822
-5.2185 11.225 -71.8271
-5.071 11.2435 -71.8783
-4.9245 11.2893 -72.0121
-4.7759 11.2861 -71.9977
-4.627 11.2772 -71.9657
-4.4783 11.2703 -71.9401
-4.3308 11.2987 -72.0211
-4.1819 11.2853 -71.9757
-4.033 11.2722 -71.931
-3.8846 11.2753 -71.9355
-3.7364 11.2817 -71.9499
-3.5877 11.2728 -71.9178
-3.4389 11.2549 -71.8587
-3.2908 11.2724 -71.9066
-3.1429 11.3038 -71.9967
-2.9944 11.2983 -71.9749
-2.8455 11.2658 -71.8715
-2.6974 11.2912 -71.9434
-2.549 11.3011 -71.9683
-2.4005 11.2902 -71.9299
-2.252 11.2771 -71.8853
-2.1036 11.2623 -71.8351
-1.9553 11.2426 -71.7704
-1.807 11.2285 -71.7225
-1.6588 11.2171 -71.6827
-1.5109 11.17 -71.5347
-1.3625 11.2007 -71.6226
-1.214 11.2297 -71.7052
-1.0663 11.1871 -71.5708
-0.9178 11.2073 -71.6266
-0.7697 11.2052 -71.6149
-0.6216 11.2025 -71.6013
-0.4734 11.2015 -71.5931
-0.3255 11.1903 -71.5539
-0.1777 11.1781 -71.5115
-0.0298 11.173 -71.4907
0.1183 11.1733 -71.4862
0.2662 11.1678 -71.4642
0.4139 11.1562 -71.4235
0.5627 11.1781 -71.4844
-17.607 11.3129 -72.8977
-17.4536 11.2953 -72.8409
-17.2999 11.2759 -72.7783
-17.1437 11.245 -72.6807
-16.9917 11.2322 -72.6383
-16.8451 11.2439 -72.6703
-16.6955 11.2423 -72.6621
-16.5422 11.2229 -72.5992
-16.3988 11.2501 -72.6784
-16.253 11.2658 -72.7228
-16.0989 11.2426 -72.6483
-15.944 11.2147 -72.56
-15.791 11.1954 -72.4976
-15.6529 11.25 -72.6599
-15.4926 11.1939 -72.4857
-15.3429 11.1904 -72.4714
-15.196 11.2012 -72.5006
-15.0484 11.209 -72.5205
-14.9017 11.2211 -72.5534
-14.7532 11.2242 -72.5591
-14.6039 11.2231 -72.5519
-14.4569 11.2342 -72.5822
-14.3092 11.2416 -72.6006
-14.1498 11.1845 -72.4231
-14.0075 11.2218 -72.5329
-13.8651 11.2599 -72.6449
-13.7124 11.239 -72.5774
-13.5611 11.226 -72.534
-13.4079 11.2009 -72.4536
-13.2529 11.1645 -72.3392
-13.0991 11.1347 -72.2445
-12.9531 11.152 -72.2931
-12.8084 11.1777 -72.3674
-12.6614 11.1899 -72.4005
-12.512 11.1867 -72.3868
-12.3618 11.1783 -72.3573
-12.2123 11.1741 -72.3405
-12.0637 11.176 -72.3421
-11.9142 11.1714 -72.3239
-11.7638 11.1609 -72.2879
-11.6146 11.1584 -72.2762
-11.4677 11.1717 -72.3127
-11.3262 11.2252 -72.4712
-11.1771 11.2234 -72.4616
-11.0258 11.2061 -72.4046
-10.8761 11.1999 -72.3816
-10.7276 11.2024 -72.3849
-10.5781 11.1978 -72.3669
-10.4281 11.1883 -72.3338
-10.2788 11.1844 -72.3177
-10.1308 11.1912 -72.3341
-9.982 11.1919 -72.3318
-9.8327 11.1875 -72.3142
-9.6844 11.1919 -72.3232
-9.5362 11.1974 -72.3357
-9.3858 11.1828 -72.287
-9.2358 11.1708 -72.2461
-9.0874 11.1746 -72.2531
-8.9395 11.1829 -72.2741
-8.7917 11.1923 -72.2981
-8.6428 11.191 -72.2898
-8.4925 11.1748 -72.2361
-8.3425 11.1613 -72.1904
-8.1931 11.1537 -72.1631
-8.0434 11.1422 -72.1236
-7.8936 11.1287 -72.0779
-7.7439 11.1161 -72.0352
-7.5943 11.1033 -71.9917
-7.4471 11.1194 -72.036
-7.2999 11.1364 -72.0832
-7.1514 11.1377 -72.0826
-7.0018 11.1253 -72.0403
-6.8532 11.1241 -72.0319
-6.7056 11.1382 -72.07
-6.5564 11.1292 -72.0381
-6.4081 11.1326 -72.0436
-6.2596 11.1325 -72.0388
-6.1106 11.1261 -72.0144
-5.9615 11.1161 -71.9795
-5.8125 11.1076 -71.949
-5.6638 11.1026 -71.929
-5.515 11.0965 -71.9056
-5.3663 11.0913 -71.8849
-5.2174 11.0813 -71.8499
-5.0697 11.0965 -71.8912
-4.9222 11.1188 -71.954
-4.7737 11.1175 -71.9451
-4.6252 11.1151 -71.9329
-4.4778 11.1433 -72.0137
-4.3294 11.1472 -72.0208
-4.1804 11.131 -71.9665
-4.0317 11.1254 -71.9445
-3.8834 11.1309 -71.9564
-3.7351 11.1359 -71.9664
-3.5864 11.1251 -71.9287
-3.4375 11.1021 -71.8537
-3.2892 11.1059 -71.8602
-3.1416 11.1549 -72.004
-2.9931 11.1554 -72.0004
-2.8445 11.1454 -71.965
-2.696 11.1333 -71.9233
-2.5477 11.1462 -71.9572
-2.3992 11.1476 -71.9563
-2.2507 11.1256 -71.8843
-2.1023 11.1063 -71.8207
-1.954 11.0882 -71.7604
-1.8057 11.0721 -71.7063
-1.6575 11.0615 -71.6689
-1.5095 11.0292 -71.5657
-1.3614 11.028 -71.5567
-1.2131 11.0466 -71.608
-1.065 11.0364 -71.5717
-0.9167 11.0457 -71.5948
-0.7688 11.0316 -71.5465
-0.6204 11.0445 -71.5803
-0.472 11.0566 -71.6118
-0.3242 11.0432 -71.5658
-0.1766 11.0245 -71.5036
-0.0287 11.018 -71.4786
0.1195 11.0211 -71.4824
0.2673 11.0147 -71.4575
0.4143 10.9843 -71.3599
0.5629 10.9993 -71.3999
0.7126 11.0426 -71.5258
-17.7507 11.1455 -72.854
-17.6017 11.1467 -72.8543
-17.4503 11.1377 -72.8232
-17.2971 11.1205 -72.7674
-17.143 11.0992 -72.6988
-16.9895 11.0796 -72.6355
-16.8413 11.0839 -72.6451
-16.6919 11.0832 -72.6393
-16.542 11.0794 -72.6243
-16.3974 11.1006 -72.6854
-16.249 11.1045 -72.6936
-16.0947 11.0801 -72.6154
-15.9419 11.0622 -72.5572
-15.7957 11.0765 -72.5972
-15.6549 11.1175 -72.7185
-15.498 11.0787 -72.5968
-15.3473 11.0707 -72.5686
-15.1998 11.0788 -72.5895
-15.0467 11.0583 -72.5232
-14.8993 11.0666 -72.5449
-14.7526 11.0791 -72.5793
-14.6031 11.077 -72.5689
-14.4546 11.0803 -72.5752
-14.3043 11.0731 -72.5495
-14.1483 11.0346 -72.4281
-14.0082 11.0847 -72.5771
-13.8622 11.1022 -72.6265
-13.7062 11.0619 -72.4999
-13.5578 11.0656 -72.5074
-13.4056 11.0465 -72.445
-13.2506 11.0105 -72.3316
-13.0973 10.9832 -72.2441
-12.95 10.9928 -72.2695
-12.8053 11.0182 -72.3431
-12.6589 11.0339 -72.387
-12.5105 11.0369 -72.3921
-12.3605 11.0302 -72.3676
-12.2114 11.0286 -72.3588
-12.0621 11.0254 -72.3449
-11.9116 11.0142 -72.3065
-11.7607 11 -72.2593
-11.6116 10.9977 -72.248
-11.4643 11.0084 -72.2766
-11.3159 11.0113 -72.2814
-11.1683 11.0201 -72.304
-11.0228 11.0445 -72.3743
-10.8743 11.0479 -72.3802
-10.7247 11.0415 -72.3566
-10.5753 11.0377 -72.3406
-10.4236 11.0147 -72.2665
-10.2763 11.0266 -72.2983
-10.1293 11.041 -72.3379
-9.981 11.0458 -72.3485
-9.8313 11.0379 -72.3199
-9.6822 11.0351 -72.3072
-9.5347 11.0467 -72.3382
-9.3862 11.0497 -72.3429
-9.2351 11.0284 -72.2735
-9.0867 11.0314 -72.2784
-8.9386 11.0387 -72.2963
-8.7894 11.0336 -72.2763
-8.64 11.0276 -72.2536
-8.4906 11.02 -72.2259
-8.3412 11.0128 -72.1994
-8.1917 11.0037 -72.1673
-8.0418 10.9903 -72.1218
-7.8919 10.9762 -72.0744
-7.7423 10.9635 -72.0311
-7.5921 10.9447 -71.9695
-7.4472 10.9891 -72.1
-7.2998 11.0047 -72.1429
-7.1499 10.988 -72.0874
-7.0004 10.9755 -72.0447
-6.852 10.978 -72.0476
-6.7039 10.9835 -72.0599
-6.5543 10.9682 -72.0087
-6.406 10.9714 -72.0137
-6.2577 10.9757 -72.0222
-6.1092 10.9759 -72.0179
-5.9604 10.9721 -72.0015
-5.8116 10.9658 -71.9776
-5.6626 10.9572 -71.9466
-5.5136 10.9458 -71.9071
-5.3645 10.9335 -71.8648
-5.2158 10.9275 -71.8417
-5.0675 10.9299 -71.8443
-4.9196 10.9399 -71.8699
-4.7716 10.9498 -71.8951
-4.6234 10.9559 -71.9089
-4.4756 10.9713 -71.9508
-4.3274 10.9806 -71.9742
-4.1788 10.9743 -71.95
-4.0303 10.9729 -71.9407
-3.8822 10.9858 -71.9751
-3.733 10.9589 -71.8881
-3.5842 10.9399 -71.8253
-3.4362 10.9576 -71.8744
-3.288 10.9646 -71.8904
-3.1399 10.9823 -71.9392
-2.9915 10.9843 -71.9403
-2.8429 10.9744 -71.905
-2.6945 10.9673 -71.8785
-2.5462 10.9837 -71.9231
-2.3978 10.9857 -71.9241
-2.2493 10.9681 -71.8653
-2.101 10.9492 -71.8026
-1.9527 10.9306 -71.741
-1.8044 10.9107 -71.6751
-1.6562 10.9109 -71.6705
-1.5079 10.9225 -71.7005
-1.3601 10.8768 -71.5562
-1.212 10.8773 -71.5524
-1.0638 10.8824 -71.5628
-0.9156 10.8837 -71.5612
-0.7677 10.8729 -71.5231
-0.6194 10.8832 -71.5492
-0.4708 10.9036 -71.6058
-0.3226 10.9051 -71.6051
-0.1754 10.8711 -71.4962
-0.0277 10.8577 -71.4499
0.1205 10.8633 -71.4618
0.2681 10.8491 -71.413
0.415 10.8179 -71.3125
0.5632 10.826 -71.3318
0.7131 10.8746 -71.4743
0.8654 10.9757 -71.7762
-17.744 10.9734 -72.792
-17.5943 10.9718 -72.7836
-17.4492 10.9899 -72.8356
-17.2958 10.9717 -72.7764
-17.1424 10.9533 -72.7165
-16.9907 10.9424 -72.6798
-16.8409 10.9393 -72.6668
-16.6915 10.9386 -72.6612
-16.5431 10.9419 -72.6677
-16.3957 10.9502 -72.6894
-16.2422 10.9299 -72.6238
-16.0875 10.9031 -72.5381
-15.9409 10.9151 -72.5713
-15.7989 10.9499 -72.6738
-15.6506 10.954 -72.6828
-15.5013 10.9533 -72.6769
-15.3508 10.9468 -72.6534
-15.1992 10.9341 -72.6109
-15.0474 10.9202 -72.5645
-14.8998 10.9275 -72.5831
-14.7523 10.9358 -72.6047
-14.6031 10.9356 -72.6002
-14.4518 10.9232 -72.5585
-14.3013 10.9155 -72.5313
-14.1507 10.9068 -72.5009
-14.0005 10.8998 -72.4757
-13.8501 10.892 -72.4479
-13.7029 10.9023 -72.4753
-13.5549 10.9074 -72.4872
-13.4035 10.8935 -72.4407
-13.2499 10.8656 -72.3516
-13.0974 10.8435 -72.28
-12.9489 10.8452 -72.2813
-12.8023 10.8592 -72.3201
-12.6557 10.8737 -72.3604
-12.5081 10.8819 -72.3813
-12.3585 10.8771 -72.3626
-12.2091 10.8738 -72.3486
-12.0591 10.8658 -72.32
-11.9086 10.8547 -72.2821
-11.7587 10.8468 -72.2539
-11.6101 10.8485 -72.2549
-11.4626 10.8573 -72.2777
-11.3155 10.8695 -72.3109
-11.1664 10.8671 -72.2993
-11.0214 10.8959 -72.3829
-10.8734 10.9022 -72.3979
-10.7197 10.8652 -72.2808
-10.5718 10.8718 -72.2966
-10.4201 10.8489 -72.2224
-10.2741 10.871 -72.2858
-10.1265 10.8808 -72.3114
-9.9773 10.8774 -72.2968
-9.8295 10.8854 -72.3168
-9.6812 10.8896 -72.3252
-9.5355 10.9178 -72.4072
-9.3854 10.9061 -72.367
-9.2343 10.885 -72.2981
-9.0861 10.8904 -72.3104
-8.9377 10.8935 -72.3154
-8.7877 10.8817 -72.2749
-8.6383 10.8748 -72.2495
-8.4895 10.8746 -72.2442
-8.3404 10.8702 -72.2264
-8.1908 10.8609 -72.1934
-8.0407 10.8446 -72.1391
-7.8908 10.8295 -72.0886
-7.7415 10.822 -72.061
-7.5926 10.8173 -72.0421
-7.4474 10.859 -72.165
-7.2981 10.8508 -72.1352
-7.1482 10.8346 -72.0812
-6.9996 10.8339 -72.0744
-6.8511 10.8348 -72.0726
-6.702 10.8275 -72.0456
-6.5531 10.8226 -72.026
-6.4044 10.82 -72.0134
-6.2559 10.8198 -72.0079
-6.1074 10.8203 -72.0047
-5.9588 10.8182 -71.9937
-5.8099 10.8119 -71.9697
-5.6609 10.8022 -71.9352
-5.5118 10.7882 -71.8877
-5.3626 10.7734 -71.8377
-5.2137 10.7623 -71.7989
-5.0653 10.7611 -71.7906
-4.9174 10.7716 -71.8177
-4.7697 10.7884 -71.8641
-4.622 10.8041 -71.907
-4.4739 10.8138 -71.9316
-4.3256 10.8176 -71.9383
-4.177 10.8135 -71.921
-4.0289 10.8212 -71.9393
-3.8801 10.8084 -71.8955
-3.731 10.7826 -71.8117
-3.5829 10.7927 -71.8375
-3.4349 10.8106 -71.8872
-3.2868 10.8255 -71.9275
-3.1386 10.8333 -71.9461
-2.99 10.8281 -71.9253
-2.8414 10.8098 -71.8644
-2.6928 10.7871 -71.79
-2.5446 10.7975 -71.8164
-2.3964 10.8149 -71.8643
-2.248 10.8026 -71.8219
-2.0996 10.7909 -71.781
-1.9513 10.7744 -71.7253
-1.8032 10.7518 -71.6511
-1.655 10.7473 -71.6323
-1.5067 10.7614 -71.6699
-1.3588 10.7327 -71.5771
-1.2107 10.7244 -71.5466
-1.0626 10.726 -71.5461
-0.9146 10.7199 -71.5223
-0.7666 10.7144 -71.5003
-0.6183 10.7227 -71.5201
-0.4697 10.7463 -71.5867
-0.3212 10.7598 -71.6224
-0.1746 10.702 -71.441
-0.0267 10.7005 -71.431
0.1216 10.7068 -71.4448
0.2689 10.686 -71.3758
0.4157 10.6539 -71.2724
0.5646 10.6795 -71.3451
0.7138 10.7119 -71.4382
0.8623 10.7221 -71.4638
1.0119 10.7587 -71.57
-17.7343 10.7887 -72.6913
-17.5906 10.8128 -72.7616
-17.4463 10.8343 -72.8238
-17.2938 10.8202 -72.7773
-17.1391 10.7958 -72.699
-16.9923 10.8066 -72.7284
-16.8396 10.7909 -72.6767
-16.69 10.7887 -72.6665
-16.5442 10.8046 -72.7117
-16.3939 10.7995 -72.6923
-16.2355 10.756 -72.5554
-16.0864 10.7557 -72.551
-15.9473 10.8038 -72.6948
-15.8004 10.815 -72.7253
-15.6458 10.7882 -72.6396
-15.4954 10.7816 -72.6155
-15.3455 10.7778 -72.6003
-15.1934 10.7624 -72.5494
-15.0422 10.7511 -72.511
-14.9003 10.7887 -72.6224
-14.7543 10.8049 -72.6683
-14.6028 10.7923 -72.6259
-14.4498 10.771 -72.5568
-14.2981 10.7567 -72.5093
-14.1478 10.7493 -72.4827
-13.9971 10.7398 -72.4497
-13.8478 10.7376 -72.439
-13.7008 10.7492 -72.4707
-13.552 10.75 -72.4693
-13.4012 10.739 -72.4316
-13.2489 10.7188 -72.3657
-13.0964 10.6969 -72.2947
-12.9462 10.6885 -72.2651
-12.7992 10.6997 -72.2955
-12.6532 10.7173 -72.3452
-12.5054 10.7245 -72.3633
-12.356 10.7208 -72.348
-12.204 10.7002 -72.2807
-12.0533 10.6874 -72.2376
-11.9054 10.6936 -72.2524
-11.7575 10.6995 -72.2665
-11.6134 10.732 -72.3618
-11.4611 10.7077 -72.2831
-11.31 10.6911 -72.2282
-11.1666 10.7301 -72.3434
-11.0178 10.7302 -72.3396
-10.8678 10.7212 -72.3078
-10.7173 10.7085 -72.2648
-10.5697 10.7171 -72.2868
-10.4233 10.7362 -72.3409
-10.2731 10.7252 -72.3031
-10.1232 10.7158 -72.27
-9.9728 10.7019 -72.2233
-9.8238 10.6992 -72.2104
-9.6787 10.7309 -72.3031
-9.5318 10.7476 -72.35
-9.3811 10.7308 -72.2941
-9.2326 10.7327 -72.2955
-9.087 10.7628 -72.3833
-8.9356 10.7379 -72.3028
-8.7862 10.731 -72.2772
-8.6371 10.7275 -72.262
-8.4886 10.73 -72.265
-8.34 10.7315 -72.2651
-8.1903 10.7204 -72.2267
-8.0401 10.7036 -72.1708
-7.89 10.6877 -72.1176
-7.7407 10.68 -72.0896
-7.5946 10.7092 -72.1742
-7.4454 10.702 -72.1476
-7.2959 10.691 -72.1093
-7.146 10.6738 -72.0522
-6.9987 10.6913 -72.101
-6.8498 10.6863 -72.0811
-6.7003 10.673 -72.0358
-6.5515 10.6699 -72.0215
-6.4029 10.6685 -72.0126
-6.254 10.6621 -71.9881
-6.1055 10.6619 -71.9829
-5.9569 10.6604 -71.9736
-5.8079 10.6515 -71.9417
-5.6588 10.6385 -71.8969
-5.5098 10.627 -71.8569
-5.3608 10.6164 -71.8198
-5.2119 10.6052 -71.7807
-5.0634 10.6003 -71.7608
-4.9154 10.6079 -71.7793
