8.5361 -103.382 -74.625
8.6952 -103.425 -74.8174
8.8396 -103.403 -74.7218
8.9812 -103.37 -74.5755
9.1342 -103.385 -74.6464
9.2894 -103.409 -74.7552
9.4438 -103.429 -74.8472
9.5911 -103.42 -74.8087
9.7348 -103.396 -74.7058
9.8831 -103.392 -74.6876
10.0457 -103.443 -74.9176
10.2021 -103.469 -75.0353
10.3523 -103.471 -75.0466
10.4948 -103.443 -74.927
10.6434 -103.44 -74.9121
10.7953 -103.448 -74.9499
10.9507 -103.468 -75.0439
11.5299 -103.923 -77.0736
11.7037 -104.001 -77.4234
11.8517 -103.989 -77.3716
12.0142 -104.027 -77.5411
12.1842 -104.089 -77.8175
12.3463 -104.123 -77.9719
12.4913 -104.1 -77.8717
12.6414 -104.094 -77.8483
12.7968 -104.106 -77.9024
12.9543 -104.124 -77.9838
13.1147 -104.15 -78.1038
13.2696 -104.159 -78.1453
13.4092 -104.121 -77.9764
13.5547 -104.101 -77.8902
13.7071 -104.102 -77.8983
13.8721 -104.142 -78.0743
14.0341 -104.171 -78.2086
14.1819 -104.158 -78.1523
14.3519 -104.211 -78.3868
14.5001 -104.199 -78.3356
14.6405 -104.165 -78.1865
14.7886 -104.153 -78.1372
14.9374 -104.144 -78.0975
15.1163 -104.219 -78.4313
15.288 -104.272 -78.6695
15.4396 -104.27 -78.6601
15.5946 -104.276 -78.6915
15.7436 -104.267 -78.6508
15.8872 -104.243 -78.5468
16.0496 -104.269 -78.6647
16.2182 -104.311 -78.8535
16.3636 -104.292 -78.7702
16.5116 -104.28 -78.7188
16.656 -104.259 -78.6265
16.7926 -104.219 -78.4475
-8.3232 -103.739 -75.1304
-8.1732 -103.733 -75.1093
-8.0206 -103.706 -74.9962
-7.8693 -103.688 -74.922
-7.7199 -103.686 -74.9165
-7.5699 -103.678 -74.8864
-7.4263 -103.725 -75.0981
-7.2785 -103.738 -75.1608
-7.1286 -103.732 -75.14
-6.9779 -103.718 -75.0818
-6.8263 -103.695 -74.9851
-6.6751 -103.674 -74.8953
-6.5258 -103.672 -74.8904
-6.3776 -103.681 -74.9352
-6.2289 -103.686 -74.963
-6.0798 -103.686 -74.9662
-5.9301 -103.68 -74.9449
-5.7801 -103.669 -74.9012
-5.6308 -103.667 -74.8951
-5.4813 -103.661 -74.8755
-5.3316 -103.653 -74.8428
-5.1838 -103.671 -74.9284
-5.0334 -103.653 -74.8507
-4.8836 -103.641 -74.8027
-4.7365 -103.675 -74.9567
-4.5851 -103.634 -74.782
-4.437 -103.652 -74.8642
-4.2877 -103.648 -74.8523
-4.1373 -103.621 -74.7341
-3.9872 -103.597 -74.6344
-3.839 -103.617 -74.7249
-3.6899 -103.613 -74.7138
-3.5404 -103.601 -74.662
-3.3906 -103.572 -74.5406
-3.2409 -103.544 -74.4186
-3.0921 -103.547 -74.4345
-2.9437 -103.569 -74.5362
-2.7948 -103.569 -74.5409
-2.6458 -103.567 -74.5377
-2.4968 -103.559 -74.5072
-2.3477 -103.542 -74.4347
-2.199 -103.587 -74.6366
-2.05 -103.59 -74.6551
-1.901 -103.563 -74.5364
-1.7521 -103.555 -74.5056
-1.6031 -103.561 -74.5361
-1.4542 -103.556 -74.5211
-1.3053 -103.55 -74.4973
-1.1563 -103.551 -74.505
-1.0074 -103.55 -74.5024
-0.8584 -103.553 -74.5209
-0.7087 -103.578 -74.6356
-0.5602 -103.559 -74.5565
-0.4106 -103.577 -74.6394
-0.2622 -103.557 -74.5516
-0.114 -103.536 -74.4662
0.0362 -103.565 -74.5951
0.1846 -103.551 -74.536
0.334 -103.558 -74.5721
0.4827 -103.551 -74.5446
0.6314 -103.545 -74.5211
0.7799 -103.537 -74.4896
0.9303 -103.559 -74.5896
1.0784 -103.543 -74.5251
1.2287 -103.561 -74.6055
1.379 -103.578 -74.6852
1.528 -103.576 -74.6796
1.6767 -103.57 -74.6569
1.8261 -103.573 -74.6718
1.9751 -103.57 -74.6625
2.1214 -103.538 -74.5243
2.2702 -103.534 -74.51
2.4232 -103.576 -74.6995
2.5708 -103.56 -74.6306
2.7185 -103.545 -74.5693
2.865 -103.519 -74.4564
3.0117 -103.497 -74.3616
3.1653 -103.539 -74.5503
3.3142 -103.537 -74.5465
3.4611 -103.518 -74.4633
3.6087 -103.505 -74.4116
3.7571 -103.5 -74.3904
3.9062 -103.5 -74.3962
4.0577 -103.519 -74.4825
4.2027 -103.488 -74.3486
4.3491 -103.468 -74.2644
4.4973 -103.463 -74.2429
4.6513 -103.499 -74.4042
4.7976 -103.48 -74.3226
4.948 -103.489 -74.3664
5.0985 -103.498 -74.4106
5.2481 -103.502 -74.4289
5.3954 -103.49 -74.3803
5.5452 -103.494 -74.4022
5.6957 -103.502 -74.4408
5.8447 -103.502 -74.4399
5.99 -103.479 -74.3423
6.1393 -103.48 -74.3511
6.2869 -103.472 -74.3164
6.4357 -103.47 -74.3118
6.589 -103.494 -74.4189
6.7371 -103.488 -74.3955
6.8861 -103.487 -74.3951
7.0369 -103.495 -74.4338
7.1915 -103.523 -74.5608
7.3417 -103.528 -74.5828
7.4915 -103.53 -74.5967
7.6404 -103.528 -74.5894
7.788 -103.52 -74.5564
7.9381 -103.524 -74.5749
8.0933 -103.551 -74.699
8.2435 -103.554 -74.7172
8.3886 -103.535 -74.6322
8.5388 -103.539 -74.6517
8.6997 -103.589 -74.879
8.8434 -103.564 -74.7689
8.9834 -103.523 -74.5911
9.1381 -103.546 -74.6918
9.2932 -103.569 -74.7988
9.448 -103.591 -74.8969
9.5942 -103.577 -74.8379
9.7404 -103.564 -74.7818
9.8951 -103.584 -74.8737
10.052 -103.612 -75.0018
10.2046 -103.623 -75.0536
10.5005 -103.61 -74.999
10.6462 -103.595 -74.9349
10.8144 -103.663 -75.2386
11.4176 -104.209 -77.6622
11.5662 -104.198 -77.6172
11.7082 -104.164 -77.4702
11.875 -104.217 -77.7055
12.0544 -104.311 -78.1248
12.2083 -104.317 -78.1539
12.3709 -104.352 -78.3117
12.5191 -104.339 -78.2557
12.6629 -104.312 -78.1382
12.8185 -104.324 -78.1912
12.976 -104.341 -78.2688
13.1346 -104.361 -78.3617
13.2831 -104.35 -78.3111
13.421 -104.305 -78.1166
13.5719 -104.302 -78.103
13.7289 -104.317 -78.1721
13.8977 -104.367 -78.396
14.0549 -104.382 -78.4624
14.2007 -104.362 -78.3791
14.3642 -104.395 -78.5256
14.5114 -104.38 -78.4612
14.6521 -104.347 -78.3151
14.8107 -104.365 -78.3959
14.9658 -104.373 -78.4329
15.1383 -104.429 -78.6843
15.3009 -104.457 -78.8093
15.4547 -104.46 -78.8253
15.6108 -104.469 -78.8687
15.7596 -104.459 -78.8233
15.9074 -104.446 -78.7677
16.0757 -104.487 -78.9527
16.2334 -104.5 -79.0119
16.3779 -104.479 -78.9175
16.5092 -104.423 -78.6732
16.6445 -104.379 -78.4774
-8.3233 -103.898 -75.1683
-8.1728 -103.887 -75.1276
-8.0212 -103.869 -75.0506
-7.8741 -103.885 -75.1271
-7.7193 -103.84 -74.9306
-7.5676 -103.817 -74.8358
-7.4224 -103.851 -74.9884
-7.2764 -103.878 -75.1148
-7.1278 -103.884 -75.1459
-6.9771 -103.871 -75.0907
-6.8253 -103.845 -74.9837
-6.6736 -103.82 -74.8756
-6.5248 -103.822 -74.889
-6.3759 -103.825 -74.9066
-6.2276 -103.834 -74.9499
-6.0787 -103.836 -74.9631
-5.9297 -103.837 -74.9752
-5.7799 -103.83 -74.946
-5.6306 -103.827 -74.9399
-5.4825 -103.842 -75.0104
-5.3325 -103.831 -74.9653
-5.1829 -103.825 -74.9415
-5.0324 -103.803 -74.8494
-4.8831 -103.8 -74.8412
-4.736 -103.835 -74.9997
-4.5846 -103.794 -74.823
-4.4356 -103.797 -74.8396
-4.2866 -103.799 -74.852
-4.1362 -103.77 -74.7297
-3.9859 -103.74 -74.6021
-3.838 -103.769 -74.7313
-3.6886 -103.759 -74.6929
-3.5391 -103.745 -74.6355
-3.3894 -103.72 -74.5295
-3.2398 -103.694 -74.4188
-3.0908 -103.687 -74.3903
-2.9424 -103.709 -74.4938
-2.7936 -103.715 -74.5226
-2.6447 -103.715 -74.5287
-2.4957 -103.713 -74.5209
-2.3466 -103.684 -74.3986
-2.1979 -103.73 -74.6077
-2.0489 -103.741 -74.6592
-1.8999 -103.717 -74.5573
-1.751 -103.71 -74.5293
-1.602 -103.709 -74.5281
-1.4531 -103.703 -74.5077
-1.304 -103.711 -74.5446
-1.155 -103.712 -74.5529
-1.0058 -103.719 -74.5891
-0.8568 -103.721 -74.6008
-0.7074 -103.734 -74.6612
-0.5596 -103.689 -74.467
-0.4105 -103.696 -74.5005
-0.2614 -103.697 -74.5092
-0.1124 -103.698 -74.5174
0.0354 -103.669 -74.3927
0.1846 -103.675 -74.4223
0.3344 -103.693 -74.5052
0.4847 -103.718 -74.619
0.6341 -103.723 -74.6455
0.782 -103.702 -74.5552
0.9305 -103.692 -74.5141
1.0789 -103.683 -74.4794
1.2284 -103.69 -74.513
1.3789 -103.71 -74.6025
1.5301 -103.738 -74.7305
1.6785 -103.728 -74.6905
1.8258 -103.704 -74.5881
1.9727 -103.677 -74.4743
2.1208 -103.666 -74.4283
2.2724 -103.695 -74.5601
2.4233 -103.714 -74.6464
2.5715 -103.704 -74.6069
2.7218 -103.715 -74.6565
2.8694 -103.7 -74.5945
3.0159 -103.675 -74.4847
3.1647 -103.673 -74.4787
3.3141 -103.675 -74.4922
3.4636 -103.679 -74.5116
3.6117 -103.67 -74.4772
3.7596 -103.66 -74.4343
3.9092 -103.664 -74.4559
4.06 -103.677 -74.5188
4.2051 -103.647 -74.3869
4.3493 -103.61 -74.2291
4.4963 -103.596 -74.17
4.6496 -103.628 -74.3107
4.7981 -103.624 -74.2966
4.9483 -103.632 -74.3372
5.1004 -103.652 -74.4279
5.2494 -103.651 -74.4267
5.3978 -103.647 -74.4092
5.5449 -103.634 -74.3565
5.6956 -103.644 -74.4033
5.846 -103.652 -74.4416
5.994 -103.645 -74.4125
6.1415 -103.635 -74.3734
6.2884 -103.623 -74.3212
6.438 -103.626 -74.3371
6.5914 -103.649 -74.4431
6.7378 -103.634 -74.3789
6.8843 -103.62 -74.3208
7.0348 -103.628 -74.3561
7.1904 -103.661 -74.505
7.3405 -103.665 -74.5259
7.4926 -103.679 -74.5917
7.6423 -103.681 -74.6027
7.7901 -103.674 -74.5722
7.9331 -103.644 -74.4428
8.085 -103.656 -74.5004
8.2387 -103.677 -74.5926
8.391 -103.69 -74.6536
8.5417 -103.696 -74.6814
8.7 -103.735 -74.8571
8.8439 -103.71 -74.75
8.9849 -103.674 -74.5919
9.1423 -103.708 -74.7441
9.2995 -103.74 -74.8904
9.4526 -103.754 -74.955
9.5992 -103.742 -74.9031
9.7487 -103.742 -74.904
9.9002 -103.749 -74.9383
10.053 -103.761 -74.9945
11.4267 -104.388 -77.782
11.5737 -104.372 -77.711
11.718 -104.346 -77.5987
11.8971 -104.44 -78.0188
12.0766 -104.535 -78.4369
12.2248 -104.521 -78.3781
12.3785 -104.526 -78.4026
12.5242 -104.504 -78.3095
12.6692 -104.481 -78.2077
12.833 -104.519 -78.3764
12.9901 -104.534 -78.4474
13.14 -104.527 -78.4158
13.2885 -104.515 -78.3652
13.4424 -104.52 -78.3904
13.6089 -104.564 -78.586
13.7733 -104.6 -78.7488
14.0765 -104.595 -78.7276
14.2265 -104.587 -78.6964
-8.1696 -104.021 -75.054
-8.0207 -104.023 -75.0664
-7.8728 -104.034 -75.118
-7.7219 -104.02 -75.0619
-7.572 -104.013 -75.0372
-7.4216 -104.002 -74.9947
-7.2735 -104.011 -75.0396
-7.1265 -104.032 -75.1358
-6.9761 -104.021 -75.0924
-6.8261 -104.014 -75.0625
-6.6742 -103.986 -74.9474
-6.5235 -103.969 -74.8759
-6.3752 -103.978 -74.9188
-6.226 -103.978 -74.9216
-6.0777 -103.986 -74.9642
-5.9288 -103.99 -74.9843
-5.7796 -103.99 -74.9884
-5.6308 -103.994 -75.0126
-5.4814 -103.991 -75.0047
-5.3298 -103.958 -74.8631
-5.1803 -103.952 -74.8404
-5.0318 -103.96 -74.8804
-4.8827 -103.961 -74.8883
-4.7348 -103.983 -74.9884
-4.5843 -103.96 -74.8906
-4.4331 -103.918 -74.7132
-4.2843 -103.924 -74.7442
-4.1349 -103.916 -74.7102
-3.9849 -103.893 -74.6131
-3.8367 -103.913 -74.7043
-3.6871 -103.898 -74.6427
-3.5376 -103.882 -74.5788
-3.3882 -103.867 -74.5136
-3.2391 -103.857 -74.4782
-3.0901 -103.854 -74.4671
-2.9414 -103.862 -74.5045
-2.7924 -103.862 -74.5083
-2.6435 -103.858 -74.4947
-2.4946 -103.86 -74.5077
-2.3456 -103.861 -74.5164
-2.1967 -103.862 -74.5249
-2.0478 -103.88 -74.6103
-1.8988 -103.87 -74.5689
-1.7499 -103.854 -74.501
-1.6009 -103.858 -74.5241
-1.4519 -103.855 -74.5125
-1.3031 -103.847 -74.4813
-1.1537 -103.868 -74.5798
-1.0044 -103.884 -74.6518
-0.8556 -103.874 -74.6121
-0.7066 -103.87 -74.5985
-0.5583 -103.845 -74.4911
-0.409 -103.855 -74.542
-0.2591 -103.879 -74.6481
-0.1104 -103.868 -74.6054
0.0366 -103.821 -74.399
0.1857 -103.825 -74.4206
0.3365 -103.862 -74.5894
0.4863 -103.874 -74.6462
0.6352 -103.871 -74.6343
0.7832 -103.852 -74.556
0.9313 -103.836 -74.4865
1.0803 -103.837 -74.494
1.2294 -103.837 -74.4987
1.381 -103.873 -74.6595
1.5319 -103.896 -74.7658
1.6795 -103.875 -74.6761
1.8265 -103.848 -74.5616
1.9743 -103.832 -74.4947
2.1243 -103.843 -74.5467
2.275 -103.86 -74.6241
2.4251 -103.87 -74.6714
2.5732 -103.859 -74.6241
2.7215 -103.85 -74.5895
2.8719 -103.863 -74.6492
3.0179 -103.832 -74.5178
3.1666 -103.828 -74.5042
3.3178 -103.847 -74.5894
3.4661 -103.839 -74.5566
3.6144 -103.832 -74.5276
3.7617 -103.817 -74.4664
3.9091 -103.803 -74.4093
4.059 -103.81 -74.4392
4.208 -103.809 -74.4389
4.3542 -103.788 -74.3497
4.5009 -103.771 -74.2771
4.6501 -103.772 -74.2867
4.8019 -103.792 -74.375
4.9488 -103.776 -74.3115
5.1005 -103.794 -74.3928
5.2494 -103.793 -74.3897
5.3975 -103.787 -74.3644
5.5444 -103.773 -74.307
5.6966 -103.793 -74.3966
5.8458 -103.793 -74.3996
5.9958 -103.798 -74.4251
6.144 -103.792 -74.4035
6.2911 -103.781 -74.3561
6.4409 -103.784 -74.3745
6.5946 -103.81 -74.4896
6.7416 -103.798 -74.4394
6.8843 -103.763 -74.2905
7.0346 -103.77 -74.3207
7.1909 -103.807 -74.4848
7.3439 -103.826 -74.5715
7.4923 -103.821 -74.5549
7.6425 -103.826 -74.5774
7.7916 -103.825 -74.5755
7.9333 -103.788 -74.418
8.0896 -103.822 -74.5662
8.24 -103.826 -74.5905
8.3932 -103.844 -74.6697
8.5457 -103.858 -74.7332
8.6999 -103.879 -74.8281
8.8469 -103.868 -74.7813
8.995 -103.862 -74.7577
9.7594 -103.93 -75.0686
9.9197 -103.972 -75.2557
12.2539 -104.767 -78.79
12.4083 -104.773 -78.8192
-8.1687 -104.172 -75.0563
-8.0192 -104.169 -75.0491
-7.8683 -104.155 -74.9913
-7.7211 -104.172 -75.0679
-7.572 -104.172 -75.0742
-7.4209 -104.156 -75.0078
-7.2707 -104.146 -74.9714
-7.1248 -104.176 -75.1058
-6.9759 -104.179 -75.1256
-6.8264 -104.177 -75.1198
-6.6758 -104.163 -75.061
-6.5238 -104.133 -74.9362
-6.3746 -104.133 -74.939
-6.2271 -104.151 -75.0251
-6.0782 -104.155 -75.0433
-5.9278 -104.141 -74.9872
-5.7798 -104.156 -75.0565
-5.6309 -104.16 -75.0799
-5.4787 -104.12 -74.9074
-5.3273 -104.088 -74.7704
-5.1784 -104.089 -74.7833
-5.0309 -104.113 -74.8923
-4.8815 -104.109 -74.8761
-4.7321 -104.105 -74.8634
-4.583 -104.105 -74.8694
-4.4335 -104.098 -74.8402
-4.2834 -104.078 -74.7594
-4.1336 -104.061 -74.688
-3.984 -104.046 -74.6278
-3.8345 -104.035 -74.5826
-3.6846 -104.008 -74.4685
-3.536 -104.017 -74.5101
-3.3871 -104.018 -74.5175
-3.2383 -104.02 -74.5309
-3.0893 -104.015 -74.5148
-2.9403 -104.013 -74.5097
-2.7913 -104.011 -74.5044
-2.6423 -104.001 -74.4659
-2.4934 -104.007 -74.4937
-2.3446 -104.018 -74.5475
-2.1956 -104.013 -74.5311
-2.0466 -104.023 -74.579
-1.8976 -104.021 -74.5715
-1.7487 -104.005 -74.5053
-1.5998 -104.001 -74.4913
-1.4507 -104.014 -74.551
-1.3018 -104.006 -74.5197
-1.1526 -104.019 -74.5824
-1.0032 -104.038 -74.6703
-0.8544 -104.025 -74.6175
-0.7054 -104.022 -74.6057
-0.5564 -104.02 -74.6031
-0.4069 -104.032 -74.6561
-0.2579 -104.03 -74.6507
-0.1095 -104.013 -74.5819
0.0385 -103.988 -74.477
0.1872 -103.982 -74.4504
0.3379 -104.017 -74.6091
0.4871 -104.018 -74.6178
0.636 -104.015 -74.6082
0.7843 -104 -74.5454
0.9327 -103.989 -74.5008
1.0821 -103.995 -74.5324
1.231 -103.993 -74.5249
1.3824 -104.026 -74.6743
1.5325 -104.039 -74.7314
1.6808 -104.026 -74.6812
1.8293 -104.018 -74.6469
1.979 -104.024 -74.6794
2.1264 -104.004 -74.5922
2.2757 -104.005 -74.6011
2.4263 -104.021 -74.6732
2.5755 -104.02 -74.6731
2.7228 -104.001 -74.5942
2.8735 -104.016 -74.6612
3.021 -104 -74.5958
3.17 -103.998 -74.5911
3.3188 -103.994 -74.5769
3.4662 -103.98 -74.5158
3.6162 -103.987 -74.5496
3.7631 -103.968 -74.4703
3.9114 -103.962 -74.4454
4.0629 -103.981 -74.5313
4.2119 -103.979 -74.5286
4.3592 -103.965 -74.469
4.5073 -103.958 -74.4399
4.6559 -103.954 -74.4278
4.805 -103.954 -74.4288
4.9545 -103.957 -74.4442
5.104 -103.96 -74.459
5.2509 -103.945 -74.3976
5.3978 -103.93 -74.3368
5.5479 -103.937 -74.368
5.6991 -103.95 -74.429
5.8483 -103.95 -74.4322
5.9969 -103.947 -74.4199
6.1449 -103.94 -74.3942
6.2931 -103.935 -74.3716
6.4431 -103.939 -74.3961
6.5961 -103.961 -74.4931
6.7439 -103.953 -74.4622
6.892 -103.947 -74.438
7.0434 -103.959 -74.4916
7.1949 -103.971 -74.5465
7.3412 -103.956 -74.4827
7.4924 -103.965 -74.5273
7.6436 -103.975 -74.5714
7.7924 -103.972 -74.5634
7.9479 -104.001 -74.694
-8.9406 -104.51 -75.8518
-8.7799 -104.432 -75.5161
-8.6254 -104.396 -75.3644
-8.47 -104.352 -75.1759
-8.3211 -104.355 -75.1918
-8.1708 -104.346 -75.1589
-8.0203 -104.336 -75.1203
-7.8691 -104.321 -75.0569
-7.7199 -104.32 -75.0597
-7.5676 -104.294 -74.949
-7.4166 -104.277 -74.8814
-7.2702 -104.301 -74.9889
-7.1248 -104.336 -75.1467
-6.9731 -104.312 -75.0475
-6.8232 -104.305 -75.0217
-6.6754 -104.32 -75.0914
-6.523 -104.286 -74.948
-6.3723 -104.27 -74.8806
-6.2253 -104.293 -74.9862
-6.0765 -104.297 -75.0075
-5.9265 -104.288 -74.971
-5.7755 -104.265 -74.8751
-5.6281 -104.287 -74.9792
-5.4771 -104.262 -74.8728
-5.3268 -104.245 -74.8042
-5.1785 -104.256 -74.8548
-5.0295 -104.258 -74.8695
-4.8799 -104.251 -74.8407
-4.7305 -104.245 -74.8212
-4.5817 -104.252 -74.8542
-4.4331 -104.261 -74.8984
-4.2824 -104.23 -74.767
-4.1323 -104.207 -74.6694
-3.9823 -104.182 -74.5659
-3.8321 -104.151 -74.4311
-3.6836 -104.161 -74.4786
-3.5353 -104.179 -74.5616
-3.3862 -104.172 -74.5383
-3.2372 -104.17 -74.5324
-3.0882 -104.166 -74.5184
-2.9392 -104.162 -74.5043
-2.7902 -104.161 -74.5059
-2.6412 -104.157 -74.4924
-2.4923 -104.154 -74.4822
-2.3434 -104.166 -74.5367
-2.1944 -104.159 -74.5113
-2.0455 -104.152 -74.4847
-1.8965 -104.168 -74.5591
-1.7475 -104.176 -74.5967
-1.5987 -104.147 -74.4743
-1.4495 -104.168 -74.5676
-1.3006 -104.16 -74.5396
-1.1515 -104.166 -74.5673
-1.0022 -104.18 -74.6327
-0.8532 -104.176 -74.6199
-0.7042 -104.173 -74.6091
-0.5551 -104.173 -74.6147
-0.4061 -104.171 -74.6096
-0.2578 -104.151 -74.5254
-0.1086 -104.156 -74.548
0.0406 -104.16 -74.5702
0.1888 -104.141 -74.492
0.3398 -104.18 -74.6665
0.4883 -104.168 -74.6179
0.6371 -104.163 -74.5961
0.7859 -104.157 -74.5757
0.9345 -104.15 -74.5472
1.083 -104.141 -74.5111
1.2324 -104.145 -74.5345
1.383 -104.168 -74.6372
1.5312 -104.154 -74.5804
1.6818 -104.174 -74.6682
1.8315 -104.18 -74.7
1.9817 -104.192 -74.7542
2.1279 -104.156 -74.6026
2.2777 -104.163 -74.6362
2.4304 -104.201 -74.8054
2.5788 -104.192 -74.7701
2.7265 -104.176 -74.7016
2.8743 -104.162 -74.6444
3.0216 -104.144 -74.5674
3.17 -104.137 -74.5383
3.3176 -104.123 -74.4837
3.4671 -104.127 -74.5013
3.6145 -104.112 -74.4413
3.7633 -104.11 -74.4325
3.9145 -104.127 -74.5092
4.0648 -104.135 -74.5516
4.2141 -104.136 -74.5579
4.3626 -104.132 -74.5413
4.5119 -104.132 -74.5456
4.6615 -104.135 -74.5633
4.8103 -104.132 -74.5528
4.9594 -104.131 -74.5512
5.108 -104.128 -74.5378
5.2545 -104.11 -74.4625
5.4013 -104.094 -74.3982
5.5507 -104.096 -74.4081
5.7015 -104.107 -74.4576
5.8503 -104.104 -74.4502
5.9973 -104.092 -74.3975
6.1461 -104.089 -74.3898
6.2947 -104.086 -74.3785
6.4453 -104.095 -74.4178
6.5975 -104.112 -74.495
6.7479 -104.118 -74.5253
6.8985 -104.125 -74.5581
7.0486 -104.13 -74.5816
7.192 -104.099 -74.4503
7.3408 -104.097 -74.4434
7.4947 -104.12 -74.548
7.6471 -104.136 -74.6184
-8.9387 -104.654 -75.8218
-8.7802 -104.592 -75.5571
-8.6261 -104.559 -75.4166
-8.471 -104.517 -75.2366
-8.3215 -104.515 -75.2353
-8.1706 -104.503 -75.1861
-8.02 -104.492 -75.144
-7.869 -104.478 -75.0857
-7.7175 -104.459 -75.0071
-7.5648 -104.428 -74.8804
-7.4145 -104.417 -74.8365
-7.2707 -104.465 -75.0502
-7.1221 -104.47 -75.0762
-6.9686 -104.43 -74.9032
-6.8208 -104.442 -74.9616
-6.6756 -104.482 -75.1426
-6.5198 -104.414 -74.849
-6.3715 -104.422 -74.8875
-6.2249 -104.451 -75.0171
-6.0758 -104.452 -75.0279
-5.9269 -104.456 -75.0489
-5.7765 -104.441 -74.9872
-5.6274 -104.442 -74.9971
-5.4773 -104.43 -74.9494
-5.327 -104.413 -74.8796
-5.1781 -104.417 -74.9014
-5.0285 -104.41 -74.8724
-4.8787 -104.398 -74.8265
-4.7292 -104.392 -74.8055
-4.5803 -104.395 -74.8228
-4.4303 -104.377 -74.7488
-4.2804 -104.36 -74.6789
-4.131 -104.351 -74.641
-3.9812 -104.332 -74.5625
-3.8312 -104.304 -74.4475
-3.6832 -104.328 -74.5537
-3.5351 -104.354 -74.672
-3.3854 -104.333 -74.5846
-3.2362 -104.323 -74.5426
-3.0871 -104.319 -74.5314
-2.9381 -104.316 -74.5239
-2.7892 -104.316 -74.5259
-2.6402 -104.313 -74.5165
-2.491 -104.291 -74.4264
-2.3422 -104.295 -74.4477
-2.1933 -104.306 -74.4963
-2.0444 -104.317 -74.55
-1.8953 -104.343 -74.6647
-1.7463 -104.337 -74.6457
-1.5975 -104.309 -74.5239
-1.4485 -104.305 -74.5103
-1.2995 -104.31 -74.5361
-1.1505 -104.311 -74.5452
-1.0013 -104.316 -74.5714
-0.8522 -104.32 -74.5923
-0.7032 -104.319 -74.5905
-0.5541 -104.318 -74.592
-0.4049 -104.323 -74.616
-0.2568 -104.297 -74.5058
-0.1077 -104.298 -74.5146
0.0418 -104.31 -74.5703
0.1905 -104.303 -74.5421
0.341 -104.331 -74.6708
0.4904 -104.337 -74.6957
0.6384 -104.314 -74.6028
0.7874 -104.314 -74.6051
0.9365 -104.313 -74.605
1.0843 -104.293 -74.5202
1.2337 -104.298 -74.5453
1.3831 -104.303 -74.5688
1.5306 -104.281 -74.4766
1.6807 -104.294 -74.5379
1.8325 -104.327 -74.6859
1.9823 -104.335 -74.7243
2.1292 -104.307 -74.606
2.2818 -104.346 -74.7779
2.4315 -104.351 -74.8027
2.5799 -104.341 -74.7641
2.7295 -104.345 -74.7811
2.8746 -104.303 -74.6036
3.0234 -104.299 -74.5893
3.1721 -104.295 -74.5735
3.3204 -104.287 -74.5427
3.4669 -104.264 -74.4461
3.6142 -104.248 -74.3802
3.769 -104.296 -74.5909
3.9195 -104.307 -74.6398
4.0674 -104.296 -74.5967
4.2165 -104.295 -74.5964
4.3657 -104.296 -74.6004
4.5155 -104.299 -74.6199
4.6655 -104.305 -74.6482
4.815 -104.307 -74.6575
4.964 -104.304 -74.6507
5.1117 -104.294 -74.6066
5.2585 -104.278 -74.54
5.4056 -104.264 -74.4831
5.5545 -104.262 -74.4784
5.7051 -104.271 -74.5184
5.8556 -104.279 -74.5558
6.0048 -104.279 -74.5579
6.1506 -104.258 -74.4719
6.296 -104.236 -74.3788
6.4475 -104.25 -74.4405
6.5976 -104.255 -74.4647
6.7518 -104.282 -74.5855
6.9021 -104.288 -74.6127
7.0475 -104.267 -74.5236
7.1921 -104.242 -74.4207
-8.9391 -104.815 -75.8633
-8.7792 -104.743 -75.555
-8.625 -104.709 -75.4126
-8.4711 -104.676 -75.2732
-8.3205 -104.666 -75.2364
-8.1704 -104.659 -75.2118
-8.0187 -104.641 -75.1354
-7.8674 -104.623 -75.0642
-7.716 -104.605 -74.9893
-7.5655 -104.593 -74.9439
-7.4168 -104.597 -74.9654
-7.2685 -104.605 -75.0009
-7.1206 -104.616 -75.0567
-6.9677 -104.581 -74.9066
-6.821 -104.604 -75.014
-6.6728 -104.615 -75.0637
-6.5191 -104.567 -74.8612
-6.3724 -104.594 -74.9813
-6.222 -104.58 -74.9244
-6.0728 -104.579 -74.9266
-5.9257 -104.604 -75.0385
-5.7765 -104.604 -75.0425
-5.6259 -104.587 -74.9711
-5.4757 -104.573 -74.9165
-5.3246 -104.545 -74.7991
-5.1764 -104.557 -74.8546
-5.027 -104.553 -74.8414
-4.8773 -104.543 -74.8017
-4.7277 -104.535 -74.7715
-4.5783 -104.528 -74.745
-4.4281 -104.506 -74.6551
-4.2781 -104.484 -74.565
-4.1294 -104.489 -74.5888
-3.9802 -104.485 -74.5762
-3.8304 -104.463 -74.4857
-3.6823 -104.485 -74.584
-3.5349 -104.532 -74.7935
-3.3849 -104.503 -74.6696
-3.2352 -104.479 -74.5703
-3.0862 -104.476 -74.5589
-2.9372 -104.475 -74.5596
-2.7882 -104.474 -74.5583
-2.6393 -104.476 -74.5705
-2.4901 -104.46 -74.5065
-2.3411 -104.452 -74.477
-2.1922 -104.459 -74.5088
-2.0433 -104.472 -74.5696
-1.8942 -104.501 -74.7017
-1.7451 -104.504 -74.7151
-1.5962 -104.48 -74.6143
-1.447 -104.487 -74.6507
-1.2984 -104.455 -74.5164
-1.1493 -104.463 -74.5512
-1.0001 -104.469 -74.5854
-0.8512 -104.465 -74.5688
-0.7022 -104.463 -74.5634
-0.5535 -104.452 -74.5219
-0.4036 -104.479 -74.6416
-0.2548 -104.47 -74.6068
-0.1067 -104.445 -74.502
0.0425 -104.45 -74.5261
0.1932 -104.486 -74.6836
0.3426 -104.49 -74.7056
0.4917 -104.49 -74.7091
0.6401 -104.474 -74.644
0.7887 -104.465 -74.6073
0.938 -104.468 -74.6232
1.0858 -104.447 -74.5382
1.2336 -104.429 -74.4607
1.3829 -104.432 -74.4782
1.5331 -104.448 -74.5511
1.6809 -104.43 -74.4776
1.8298 -104.43 -74.4774
1.9821 -104.468 -74.6494
2.1322 -104.479 -74.6985
2.2833 -104.5 -74.7922
2.4322 -104.495 -74.7747
2.5808 -104.488 -74.7492
2.7287 -104.474 -74.6906
2.8762 -104.457 -74.6184
3.0249 -104.452 -74.6016
3.1741 -104.452 -74.6037
3.3253 -104.471 -74.6872
3.469 -104.422 -74.4772
3.6203 -104.44 -74.561
3.7741 -104.479 -74.7319
3.9229 -104.474 -74.7159
4.0701 -104.458 -74.6487
4.2189 -104.454 -74.6337
4.3683 -104.455 -74.6423
4.5183 -104.461 -74.6704
4.6688 -104.47 -74.7105
4.8198 -104.482 -74.7654
4.9688 -104.479 -74.7567
5.1163 -104.466 -74.7029
5.2631 -104.45 -74.6338
5.4106 -104.438 -74.5873
5.5602 -104.44 -74.5987
5.7106 -104.447 -74.6327
5.8617 -104.458 -74.683
6.0088 -104.445 -74.6257
6.1527 -104.413 -74.4924
6.3005 -104.405 -74.4591
6.4583 -104.453 -74.6723
6.6092 -104.462 -74.7133
6.7675 -104.511 -74.9285
6.9171 -104.511 -74.9305
7.058 -104.465 -74.7348
-8.1655 -104.779 -75.0784
-8.0156 -104.774 -75.0606
-7.8634 -104.749 -74.9573
-7.7137 -104.744 -74.9402
-7.5682 -104.776 -75.083
-7.4187 -104.773 -75.0758
-7.2692 -104.77 -75.0673
-7.119 -104.761 -75.0316
-6.9658 -104.723 -74.8698
-6.8185 -104.741 -74.9519
-6.6693 -104.74 -74.953
-6.5173 -104.709 -74.8238
-6.3712 -104.742 -74.9708
-6.22 -104.718 -74.8735
-6.0717 -104.729 -74.9219
-5.9238 -104.743 -74.99
-5.7747 -104.745 -75.0034
-5.6249 -104.737 -74.9699
-5.4745 -104.721 -74.9052
-5.3235 -104.694 -74.7931
-5.1755 -104.711 -74.8701
-5.0258 -104.701 -74.8335
-4.8758 -104.686 -74.7695
-4.726 -104.673 -74.719
-4.5764 -104.663 -74.6807
-4.4266 -104.647 -74.615
-4.2768 -104.63 -74.5459
-4.128 -104.633 -74.5632
-3.9792 -104.637 -74.5843
-3.83 -104.63 -74.5582
-3.6822 -104.661 -74.6976
-3.5334 -104.672 -74.7461
-3.3839 -104.656 -74.6807
-3.2339 -104.621 -74.5358
-3.0851 -104.624 -74.5516
-2.9362 -104.631 -74.586
-2.7873 -104.633 -74.5978
-2.6383 -104.633 -74.6011
-2.4891 -104.623 -74.5646
-2.3401 -104.614 -74.5285
-2.1911 -104.603 -74.4808
-2.0421 -104.626 -74.5864
-1.8931 -104.645 -74.6709
-1.7441 -104.628 -74.6014
-1.5948 -104.658 -74.7354
-1.4455 -104.667 -74.7791
-1.297 -104.621 -74.5837
-1.1477 -104.641 -74.6721
-0.9988 -104.629 -74.6254
-0.8502 -104.608 -74.5383
-0.7014 -104.601 -74.5091
-0.5523 -104.602 -74.5211
-0.4023 -104.633 -74.6588
-0.2526 -104.648 -74.7245
-0.1046 -104.618 -74.5974
0.0435 -104.596 -74.5071
0.1945 -104.638 -74.6916
0.3439 -104.644 -74.7204
0.4923 -104.627 -74.6531
0.641 -104.62 -74.6265
0.7898 -104.615 -74.6049
0.9387 -104.61 -74.5882
1.086 -104.582 -74.4707
1.2349 -104.579 -74.4632
1.3833 -104.571 -74.4278
1.5328 -104.577 -74.4611
1.6797 -104.55 -74.3452
1.8315 -104.585 -74.502
1.9835 -104.62 -74.6564
2.1313 -104.604 -74.5873
2.2836 -104.64 -74.7457
2.4333 -104.644 -74.7699
2.5817 -104.635 -74.7313
2.7298 -104.623 -74.6823
2.878 -104.613 -74.6419
3.0265 -104.606 -74.6146
3.1753 -104.603 -74.6044
3.3264 -104.62 -74.6816
3.4743 -104.607 -74.6319
3.6254 -104.624 -74.7049
3.7762 -104.636 -74.7626
3.9249 -104.631 -74.7424
4.0739 -104.628 -74.7332
4.2216 -104.616 -74.6837
4.3707 -104.614 -74.6784
4.5199 -104.614 -74.6797
4.6712 -104.628 -74.745
4.821 -104.631 -74.7603
4.9715 -104.639 -74.799
5.1212 -104.641 -74.8085
5.2675 -104.62 -74.7221
5.4148 -104.607 -74.669
5.5665 -104.622 -74.7365
5.7154 -104.619 -74.7258
-8.011 -104.895 -74.9347
-7.8637 -104.91 -75.0023
-7.7153 -104.917 -75.0358
-7.5684 -104.936 -75.1251
-7.4199 -104.944 -75.1609
-7.2697 -104.935 -75.1269
-7.1173 -104.905 -75.0023
-6.9647 -104.872 -74.8661
-6.8168 -104.884 -74.9199
-6.6648 -104.854 -74.7963
-6.5177 -104.875 -74.8906
-6.3687 -104.877 -74.9027
-6.2187 -104.867 -74.8639
-6.0704 -104.876 -74.9071
-5.922 -104.885 -74.9529
-5.7732 -104.89 -74.9764
-5.6241 -104.891 -74.9866
-5.4739 -104.878 -74.932
-5.3224 -104.844 -74.7898
-5.1739 -104.852 -74.8321
-5.0262 -104.875 -74.9334
-4.8753 -104.846 -74.8111
-4.7244 -104.814 -74.6809
-4.5744 -104.795 -74.6001
-4.425 -104.787 -74.5725
-4.2759 -104.784 -74.5594
-4.127 -104.785 -74.5716
-3.9785 -104.796 -74.6227
-3.83 -104.809 -74.6802
-3.6813 -104.819 -74.7278
-3.532 -104.812 -74.7016
-3.3822 -104.785 -74.5906
-3.2323 -104.751 -74.4474
-3.0837 -104.763 -74.5031
-2.9352 -104.787 -74.6091
-2.7864 -104.795 -74.6488
-2.6373 -104.792 -74.6378
-2.4881 -104.782 -74.5991
-2.339 -104.772 -74.5627
-2.19 -104.762 -74.5235
-2.041 -104.794 -74.6621
-1.892 -104.773 -74.5755
-1.743 -104.77 -74.5666
-1.5936 -104.818 -74.7773
-1.4444 -104.82 -74.7894
-1.2959 -104.771 -74.5804
-1.1466 -104.787 -74.6545
-0.9979 -104.765 -74.5627
-0.8494 -104.745 -74.4797
-0.7001 -104.755 -74.5282
-0.5508 -104.763 -74.5659
-0.4012 -104.782 -74.651
-0.2516 -104.794 -74.7081
-0.1033 -104.772 -74.6145
0.0451 -104.754 -74.5422
0.1971 -104.821 -74.8347
0.3447 -104.786 -74.6874
0.4924 -104.758 -74.5684
0.6413 -104.754 -74.5531
0.7906 -104.758 -74.574
0.9395 -104.754 -74.5593
1.0871 -104.731 -74.4637
1.2368 -104.74 -74.5081
1.3831 -104.701 -74.3403
1.5321 -104.702 -74.3487
1.6831 -104.729 -74.4685
1.8352 -104.767 -74.6356
1.9812 -104.728 -74.4734
2.1321 -104.749 -74.567
2.2852 -104.794 -74.7647
2.4345 -104.794 -74.7664
2.5829 -104.785 -74.7293
2.7314 -104.776 -74.6974
2.8792 -104.762 -74.6401
3.0281 -104.759 -74.629
3.1769 -104.755 -74.6153
3.3275 -104.768 -74.6733
3.4765 -104.766 -74.6662
3.6261 -104.769 -74.6828
3.7734 -104.753 -74.6154
3.9243 -104.766 -74.675
4.0753 -104.78 -74.7391
4.2246 -104.779 -74.7399
4.3717 -104.762 -74.6699
4.5207 -104.76 -74.6636
4.674 -104.789 -74.792
4.8246 -104.798 -74.8307
4.9763 -104.814 -74.9041
5.1261 -104.816 -74.9158
5.2722 -104.794 -74.8207
5.4219 -104.796 -74.8323
5.5718 -104.798 -74.8452
-8.0096 -105.042 -74.9197
-7.8612 -105.049 -74.9504
-7.7149 -105.072 -75.0573
-7.5651 -105.067 -75.0398
-7.4201 -105.104 -75.2043
-7.2683 -105.082 -75.1122
-7.1166 -105.059 -75.016
-6.9654 -105.039 -74.9359
-6.8159 -105.035 -74.9254
-6.6645 -105.012 -74.8283
-6.5171 -105.03 -74.9113
-6.3675 -105.024 -74.8914
-6.2186 -105.027 -74.9067
-6.0696 -105.029 -74.921
-5.9208 -105.033 -74.9392
-5.7716 -105.033 -74.9458
-5.6226 -105.035 -74.9565
-5.4727 -105.026 -74.9216
-5.3214 -104.995 -74.7938
-5.1724 -104.995 -74.7983
-5.0241 -105.008 -74.8605
-4.8742 -104.996 -74.8108
-4.7228 -104.955 -74.6385
-4.572 -104.92 -74.493
-4.4242 -104.943 -74.5941
-4.2751 -104.939 -74.5835
-4.1263 -104.943 -74.6043
-3.9778 -104.955 -74.6583
-3.8292 -104.967 -74.7132
-3.6807 -104.981 -74.7802
-3.5313 -104.974 -74.7526
-3.381 -104.933 -74.5813
-3.2312 -104.901 -74.4457
-3.0826 -104.913 -74.5038
-2.9342 -104.942 -74.63
-2.7854 -104.957 -74.6975
-2.6362 -104.943 -74.6442
-2.487 -104.933 -74.6011
-2.3381 -104.943 -74.6497
-2.189 -104.941 -74.644
-2.0399 -104.951 -74.6912
-1.8909 -104.934 -74.6205
-1.7418 -104.937 -74.6376
-1.5926 -104.951 -74.705
-1.4434 -104.954 -74.7195
-1.2949 -104.909 -74.5291
-1.1453 -104.944 -74.6843
-0.9969 -104.912 -74.5492
-0.8479 -104.907 -74.5324
-0.6984 -104.926 -74.6168
-0.5492 -104.928 -74.6298
-0.4002 -104.925 -74.6222
-0.2515 -104.914 -74.5763
-0.102 -104.926 -74.6308
0.0479 -104.944 -74.712
0.1984 -104.974 -74.8437
0.3453 -104.925 -74.6364
0.4937 -104.91 -74.5775
0.6422 -104.899 -74.5337
0.7912 -104.898 -74.5318
0.94 -104.893 -74.5144
1.0874 -104.867 -74.4039
1.2372 -104.879 -74.4598
1.3839 -104.846 -74.3191
1.535 -104.876 -74.4515
1.6883 -104.93 -74.6904
1.8363 -104.915 -74.6283
1.9811 -104.862 -74.4034
2.134 -104.908 -74.6029
2.2864 -104.944 -74.7615
2.4354 -104.941 -74.7505
2.5847 -104.941 -74.756
2.7332 -104.934 -74.7262
2.8802 -104.91 -74.6299
3.0281 -104.898 -74.5803
3.1803 -104.926 -74.7031
3.3305 -104.934 -74.7415
3.4789 -104.926 -74.7112
3.6253 -104.901 -74.6061
3.7745 -104.901 -74.6083
3.9245 -104.908 -74.6383
4.0735 -104.906 -74.6325
4.2221 -104.9 -74.6132
4.3702 -104.891 -74.5775
-8.0096 -105.201 -74.9549
-7.8599 -105.196 -74.9374
-7.7135 -105.219 -75.0403
-7.5644 -105.22 -75.0515
-7.4174 -105.24 -75.1391
-7.2675 -105.234 -75.1197
-7.1163 -105.216 -75.0447
-6.9651 -105.197 -74.9667
-6.8151 -105.188 -74.9361
-6.6665 -105.194 -74.9642
-6.5152 -105.171 -74.8707
-6.3672 -105.183 -74.9274
-6.2195 -105.199 -75.0006
-6.0696 -105.192 -74.9728
-5.9196 -105.182 -74.9324
-5.7697 -105.172 -74.8946
-5.6206 -105.173 -74.9043
-5.471 -105.167 -74.8815
-5.3212 -105.157 -74.8438
-5.1716 -105.15 -74.8202
-5.0227 -105.153 -74.8361
-4.8735 -105.152 -74.8348
-4.7226 -105.119 -74.6995
-4.5708 -105.069 -74.4854
-4.4222 -105.073 -74.5089
-4.274 -105.09 -74.5856
-4.1254 -105.097 -74.6197
-3.9769 -105.109 -74.6772
-3.8285 -105.127 -74.7539
-3.68 -105.144 -74.8312
-3.5307 -105.14 -74.8196
-3.3801 -105.087 -74.5976
-3.2304 -105.063 -74.4986
-3.0818 -105.077 -74.5603
-2.9329 -105.081 -74.5842
-2.7837 -105.071 -74.5434
-2.635 -105.089 -74.623
-2.4861 -105.101 -74.6793
-2.3373 -105.145 -74.8699
-2.1879 -105.107 -74.7121
-2.0388 -105.087 -74.6309
-1.8897 -105.088 -74.6392
-1.7406 -105.09 -74.6496
-1.5915 -105.095 -74.6749
-1.4424 -105.093 -74.6717
-1.2939 -105.05 -74.4905
-1.1446 -105.072 -74.5873
-0.9952 -105.086 -74.6513
-0.8462 -105.083 -74.6438
-0.6969 -105.089 -74.6737
-0.5475 -105.099 -74.7185
-0.4001 -105.044 -74.4846
-0.2508 -105.051 -74.5216
-0.1009 -105.073 -74.6178
0.0504 -105.126 -74.8495
0.1981 -105.091 -74.7008
0.347 -105.084 -74.675
0.4955 -105.072 -74.6247
0.6437 -105.055 -74.557
0.7921 -105.043 -74.5092
0.9406 -105.034 -74.4721
1.0876 -105.002 -74.3398
1.2371 -105.01 -74.3766
1.3864 -105.014 -74.3978
1.54 -105.078 -74.6746
1.6902 -105.09 -74.7322
1.8373 -105.063 -74.6189
1.983 -105.02 -74.4368
2.1326 -105.028 -74.4722
2.2852 -105.067 -74.6434
2.437 -105.095 -74.7697
2.5859 -105.092 -74.7564
2.7343 -105.082 -74.7164
2.8816 -105.063 -74.6373
3.0298 -105.053 -74.5978
3.1801 -105.063 -74.6463
3.331 -105.077 -74.7108
3.4796 -105.072 -74.6885
3.7764 -105.057 -74.6313
3.9259 -105.059 -74.6434
4.0813 -105.108 -74.856
-8.0096 -105.36 -74.9894
-7.86 -105.356 -74.9767
-7.7116 -105.362 -75.0091
-7.5633 -105.37 -75.0472
-7.4148 -105.376 -75.0773
-7.2659 -105.379 -75.0938
-7.1154 -105.367 -75.0483
-6.9636 -105.342 -74.9459
-6.8136 -105.334 -74.9144
-6.6656 -105.345 -74.9661
-6.5157 -105.338 -74.9402
-6.3672 -105.345 -74.9754
-6.2202 -105.37 -75.0872
-6.0693 -105.35 -75.0067
-5.9177 -105.321 -74.8861
-5.7665 -105.294 -74.7751
-5.618 -105.302 -74.8111
-5.4686 -105.298 -74.8005
-5.3197 -105.301 -74.8157
-5.1712 -105.31 -74.858
-5.0226 -105.318 -74.8991
-4.8722 -105.298 -74.8172
-4.721 -105.26 -74.6592
-4.5694 -105.213 -74.4599
-4.4204 -105.209 -74.4485
-4.2731 -105.243 -74.5949
-4.1242 -105.244 -74.6041
-3.9752 -105.243 -74.6064
-3.8274 -105.276 -74.7497
-3.6792 -105.301 -74.8607
-3.5288 -105.263 -74.7048
-3.3784 -105.217 -74.5115
-3.23 -105.237 -74.5995
-3.0809 -105.234 -74.5913
-2.9314 -105.208 -74.4846
-2.7825 -105.211 -74.5006
-2.6342 -105.261 -74.7182
-2.4854 -105.291 -74.8498
-2.3362 -105.298 -74.8817
-2.1868 -105.258 -74.7157
-2.0377 -105.247 -74.6722
-1.8886 -105.238 -74.6355
-1.7395 -105.238 -74.6411
-1.5904 -105.244 -74.6715
-1.4413 -105.239 -74.6511
-1.2926 -105.212 -74.539
-1.1434 -105.221 -74.5841
-0.9942 -105.229 -74.622
-0.8449 -105.236 -74.6556
-0.6957 -105.242 -74.6814
-0.5465 -105.244 -74.6975
-0.3995 -105.178 -74.4163
-0.2492 -105.215 -74.5764
-0.0992 -105.238 -74.68
0.0514 -105.273 -74.8347
0.1999 -105.256 -74.7625
0.3486 -105.243 -74.7135
0.4966 -105.22 -74.6177
0.6448 -105.202 -74.5451
0.7931 -105.19 -74.4942
0.9413 -105.175 -74.4352
1.0884 -105.146 -74.3124
1.2378 -105.152 -74.3433
1.3885 -105.178 -74.455
1.5412 -105.227 -74.6698
1.6901 -105.223 -74.6563
1.8375 -105.2 -74.5612
1.986 -105.192 -74.5304
2.1372 -105.217 -74.6415
2.289 -105.246 -74.7676
2.4393 -105.257 -74.8184
2.5865 -105.235 -74.726
2.7352 -105.229 -74.7019
2.8846 -105.23 -74.7099
3.0352 -105.243 -74.7684
3.1835 -105.233 -74.7306
3.332 -105.226 -74.7037
3.4799 -105.214 -74.6534
-8.1619 -105.543 -75.1239
-8.0124 -105.541 -75.12
-7.8587 -105.504 -74.9658
-7.7098 -105.506 -74.979
-7.5606 -105.505 -74.9819
-7.4125 -105.515 -75.0273
-7.2643 -105.524 -75.0702
-7.1146 -105.52 -75.0581
-6.9643 -105.509 -75.0168
-6.8142 -105.501 -74.9833
-6.6636 -105.485 -74.9238
-6.5162 -105.505 -75.0095
-6.3691 -105.528 -75.1121
-6.2186 -105.515 -75.0609
-6.0682 -105.501 -75.0057
-5.9172 -105.479 -74.9166
-5.7666 -105.459 -74.8363
-5.6172 -105.456 -74.8277
-5.4683 -105.458 -74.8408
-5.32 -105.47 -74.8966
-5.1713 -105.478 -74.9342
-5.0196 -105.438 -74.7687
-4.8703 -105.434 -74.7543
-4.7191 -105.396 -74.5965
-4.569 -105.374 -74.5074
-4.4198 -105.37 -74.4927
-4.2724 -105.4 -74.628
-4.1225 -105.381 -74.5506
-3.9735 -105.379 -74.5443
-3.8269 -105.441 -74.8131
-3.6781 -105.454 -74.8702
-3.5271 -105.396 -74.628
-3.3773 -105.368 -74.511
-3.2288 -105.386 -74.5921
-3.08 -105.395 -74.6337
-2.9307 -105.379 -74.5713
-2.7817 -105.382 -74.5898
-2.6332 -105.419 -74.7483
-2.4843 -105.445 -74.8644
-2.3349 -105.423 -74.7751
-2.1857 -105.404 -74.6963
-2.0366 -105.392 -74.6485
-1.8875 -105.379 -74.5956
-1.7384 -105.379 -74.6005
-1.5893 -105.39 -74.65
-1.4401 -105.395 -74.6754
-1.2912 -105.38 -74.6162
-1.1424 -105.367 -74.5622
-0.9933 -105.37 -74.5797
-0.844 -105.379 -74.6232
-0.6948 -105.38 -74.6312
-0.5457 -105.381 -74.64
-0.3984 -105.326 -74.408
-0.2477 -105.375 -74.6205
-0.0966 -105.424 -74.8343
0.0535 -105.444 -74.9221
0.2014 -105.413 -74.7913
0.3491 -105.38 -74.6561
0.4973 -105.361 -74.5784
0.6457 -105.348 -74.5244
0.794 -105.335 -74.4735
0.9421 -105.319 -74.4091
1.0897 -105.297 -74.317
1.2399 -105.316 -74.4026
1.3906 -105.34 -74.5054
1.5415 -105.366 -74.619
1.6909 -105.368 -74.6313
1.8385 -105.349 -74.553
1.9897 -105.373 -74.6594
2.1412 -105.4 -74.7802
2.2915 -105.412 -74.8334
2.4417 -105.421 -74.8734
2.5863 -105.37 -74.6609
2.7356 -105.37 -74.6649
2.8872 -105.394 -74.7684
3.0413 -105.441 -74.9705
3.1867 -105.403 -74.8113
3.3338 -105.381 -74.7229
-8.1596 -105.683 -75.0794
-8.0095 -105.675 -75.0512
-7.8577 -105.653 -74.9627
-7.7084 -105.652 -74.9617
-7.5596 -105.655 -74.9802
-7.4128 -105.677 -75.0775
-7.2627 -105.669 -75.0457
-7.1125 -105.66 -75.0126
-6.9645 -105.671 -75.0651
-6.8165 -105.684 -75.1235
-6.6649 -105.66 -75.0275
-6.5158 -105.661 -75.0359
-6.367 -105.667 -75.0628
-6.2155 -105.641 -74.9557
-6.0662 -105.639 -74.955
-5.9169 -105.637 -74.9514
-5.767 -105.628 -74.9168
-5.6172 -105.62 -74.8864
-5.4684 -105.625 -74.9114
-5.3191 -105.623 -74.9057
-5.1706 -105.634 -74.9585
-5.0191 -105.598 -74.8065
-4.8694 -105.586 -74.7631
-4.7185 -105.555 -74.633
-4.5677 -105.521 -74.4918
-4.4196 -105.536 -74.5605
-4.272 -105.564 -74.686
-4.122 -105.544 -74.6015
-3.9725 -105.532 -74.5562
-3.8256 -105.587 -74.7945
-3.6764 -105.586 -74.7926
-3.5262 -105.552 -74.6519
-3.3763 -105.519 -74.517
-3.2269 -105.502 -74.4484
-3.0786 -105.532 -74.5788
-2.9298 -105.541 -74.6218
-2.7808 -105.547 -74.6496
-2.6322 -105.577 -74.7812
-2.4832 -105.593 -74.8549
-2.3337 -105.564 -74.735
-2.1845 -105.542 -74.6453
-2.0354 -105.532 -74.6033
-1.8864 -105.524 -74.5753
-1.7374 -105.522 -74.5686
-1.5882 -105.53 -74.6078
-1.439 -105.543 -74.666
-1.2899 -105.544 -74.6735
-1.1412 -105.522 -74.5835
-0.9923 -105.51 -74.5392
-0.843 -105.521 -74.5863
-0.6942 -105.51 -74.5429
-0.5449 -105.518 -74.5824
-0.3957 -105.522 -74.6025
-0.2456 -105.55 -74.7257
-0.0948 -105.591 -74.9019
0.0546 -105.594 -74.9171
0.202 -105.55 -74.7364
0.3497 -105.52 -74.6083
0.4987 -105.516 -74.596
0.6466 -105.494 -74.5049
0.7944 -105.472 -74.4149
0.9431 -105.465 -74.392
1.0913 -105.454 -74.346
1.2438 -105.506 -74.5714
1.3935 -105.515 -74.6101
1.5426 -105.514 -74.6096
1.6909 -105.503 -74.5665
1.8413 -105.518 -74.6363
1.9927 -105.545 -74.7534
2.1434 -105.562 -74.8293
2.2949 -105.587 -74.9385
2.4421 -105.563 -74.8363
2.5857 -105.501 -74.5784
2.7375 -105.528 -74.6942
2.8902 -105.563 -74.8459
3.0435 -105.6 -75.0096
3.1889 -105.562 -74.8486
3.3381 -105.56 -74.8428
-8.1599 -105.844 -75.1222
-8.0065 -105.809 -74.9803
-7.8566 -105.804 -74.9613
-7.7075 -105.804 -74.9676
-7.5595 -105.814 -75.0124
-7.4125 -105.834 -75.1032
-7.2602 -105.806 -74.9879
-7.1084 -105.78 -74.8843
-6.8176 -105.856 -75.215
-6.6654 -105.827 -75.0937
-6.5141 -105.804 -75.0036
-6.365 -105.807 -75.0169
-6.2133 -105.777 -74.8967
-6.0634 -105.768 -74.8607
-5.9158 -105.787 -74.9483
-5.7665 -105.787 -74.9494
-5.6171 -105.783 -74.9389
-5.4673 -105.775 -74.9075
-5.3166 -105.752 -74.8146
-5.1682 -105.764 -74.8711
-5.02 -105.78 -74.9408
-4.8685 -105.74 -74.7776
-4.7175 -105.705 -74.6315
-4.5669 -105.675 -74.5116
-4.4208 -105.733 -74.7605
-4.2715 -105.729 -74.7451
-4.1211 -105.698 -74.6198
-3.9716 -105.687 -74.5757
-3.8242 -105.728 -74.7527
-3.6749 -105.724 -74.7396
-3.5251 -105.701 -74.6477
-3.375 -105.664 -74.4943
-3.2255 -105.642 -74.4054
-3.0774 -105.675 -74.5498
-2.9291 -105.712 -74.707
-2.7801 -105.72 -74.7476
-2.6311 -105.733 -74.807
-2.482 -105.738 -74.828
-2.3327 -105.72 -74.7597
-2.1834 -105.689 -74.63
-2.0343 -105.689 -74.6323
-1.8852 -105.686 -74.6248
-1.7362 -105.682 -74.6094
-1.5871 -105.686 -74.6307
-1.4377 -105.707 -74.7265
-1.2888 -105.694 -74.6728
-1.1399 -105.677 -74.6029
-0.9909 -105.673 -74.591
-0.8417 -105.678 -74.6174
-0.6929 -105.669 -74.5789
-0.5436 -105.674 -74.6071
-0.3936 -105.701 -74.7222
-0.2428 -105.747 -74.923
-0.0941 -105.729 -74.8502
0.0543 -105.708 -74.7627
0.2021 -105.676 -74.6305
0.3505 -105.662 -74.5739
0.5002 -105.673 -74.6232
0.6482 -105.65 -74.5329
0.795 -105.612 -74.3709
0.9445 -105.619 -74.4057
1.0916 -105.59 -74.2852
1.2443 -105.647 -74.5296
1.3955 -105.677 -74.6602
1.5443 -105.671 -74.6408
1.6934 -105.67 -74.6382
1.844 -105.688 -74.7193
1.994 -105.697 -74.7576
2.1452 -105.72 -74.8596
2.2958 -105.734 -74.9213
2.4425 -105.704 -74.7972
2.5872 -105.654 -74.5899
2.7404 -105.695 -74.7673
2.8917 -105.715 -74.8546
3.0433 -105.737 -74.9482
3.1907 -105.717 -74.8694
-8.1603 -106.005 -75.1656
-8.0071 -105.973 -75.0372
-7.8547 -105.946 -74.9259
-7.7064 -105.953 -74.9621
-7.5575 -105.955 -74.9753
-7.4103 -105.974 -75.0564
-7.2583 -105.948 -74.9532
-7.1055 -105.912 -74.8067
-6.958 -105.928 -74.8782
-6.8173 -106.014 -75.2449
-6.6653 -105.987 -75.1353
-6.5135 -105.96 -75.0228
-6.3629 -105.945 -74.9648
-6.2126 -105.931 -74.9123
-6.063 -105.926 -74.8932
-5.9145 -105.934 -74.9328
-5.7652 -105.933 -74.9324
-5.6158 -105.931 -74.9264
-5.4662 -105.925 -74.9058
-5.3148 -105.891 -74.7684
-5.1655 -105.888 -74.7565
-5.0173 -105.902 -74.8221
-4.8665 -105.874 -74.7091
-4.7163 -105.854 -74.6247
-4.567 -105.848 -74.6052
-4.4204 -105.897 -74.8152
-4.2702 -105.872 -74.7169
-4.1202 -105.853 -74.6369
-3.9715 -105.862 -74.6783
-3.823 -105.874 -74.735
-3.6734 -105.86 -74.6819
-3.5237 -105.842 -74.6082
-3.374 -105.815 -74.4976
-3.2253 -105.828 -74.558
-3.0772 -105.866 -74.719
-2.9285 -105.888 -74.819
-2.7795 -105.904 -74.8897
-2.6301 -105.892 -74.84
-2.4806 -105.86 -74.7113
-2.3314 -105.844 -74.6476
-2.1822 -105.82 -74.5464
-2.0332 -105.834 -74.6123
-1.8841 -105.833 -74.6114
-1.735 -105.851 -74.6892
-1.586 -105.829 -74.603
-1.4366 -105.855 -74.7162
-1.2876 -105.843 -74.6684
-1.1387 -105.831 -74.6197
-0.9896 -105.832 -74.6286
-0.8403 -105.839 -74.6598
-0.692 -105.809 -74.5366
-0.5432 -105.801 -74.5058
-0.3931 -105.832 -74.641
-0.2413 -105.908 -74.9639
-0.0933 -105.872 -74.8193
0.0552 -105.852 -74.734
0.2031 -105.823 -74.6188
0.3521 -105.82 -74.6096
0.5016 -105.828 -74.6451
0.6499 -105.812 -74.5795
0.7977 -105.787 -74.4785
0.9465 -105.783 -74.4654
1.092 -105.726 -74.2286
1.2452 -105.792 -74.5081
1.3987 -105.856 -74.7825
1.5478 -105.853 -74.7747
1.6963 -105.843 -74.7327
1.8466 -105.856 -74.7909
1.9969 -105.868 -74.8458
2.1471 -105.878 -74.8912
2.2966 -105.88 -74.9015
2.4502 -105.925 -75.0978
2.5973 -105.9 -74.9918
-8.6199 -106.251 -75.5539
-8.4681 -106.234 -75.4856
-8.3135 -106.194 -75.3236
-8.1601 -106.162 -75.1938
-8.0092 -106.149 -75.1416
-7.8541 -106.1 -74.9404
-7.7046 -106.096 -74.9301
-7.5587 -106.125 -75.057
-7.4094 -106.125 -75.0613
-7.2587 -106.111 -75.005
-7.1061 -106.078 -74.872
-6.9576 -106.085 -74.9027
-6.8168 -106.17 -75.2676
-6.6648 -106.143 -75.1561
-6.5128 -106.114 -75.0399
-6.3614 -106.089 -74.9398
-6.2109 -106.074 -74.8803
-6.0622 -106.079 -74.905
-5.9131 -106.081 -74.9154
-5.7637 -106.077 -74.9062
-5.6147 -106.08 -74.9228
-5.4659 -106.085 -74.9466
-5.3139 -106.044 -74.7788
-5.1638 -106.028 -74.7145
-5.0141 -106.018 -74.678
-4.8649 -106.015 -74.6695
-4.7154 -106.007 -74.6371
-4.5663 -106.005 -74.6321
-4.4173 -106.004 -74.6348
-4.2681 -106.001 -74.6226
-4.1198 -106.018 -74.699
-3.971 -106.025 -74.7337
-3.8218 -106.022 -74.7243
-3.6719 -105.997 -74.6256
-3.5218 -105.964 -74.4894
-3.3737 -105.995 -74.623
-3.2257 -106.038 -74.8087
-3.0767 -106.046 -74.8429
-2.928 -106.07 -74.9515
-2.7787 -106.073 -74.9656
-2.6294 -106.07 -74.9566
-2.4795 -106.015 -74.7311
-2.3301 -105.973 -74.5566
-2.1811 -105.98 -74.5901
-2.0321 -106.003 -74.6906
-1.883 -105.989 -74.6333
-1.7338 -106.003 -74.6984
-1.5849 -105.976 -74.5876
-1.4356 -105.992 -74.6589
-1.2865 -105.994 -74.6719
-1.1374 -105.99 -74.6571
-0.9885 -105.98 -74.6191
-0.8393 -105.982 -74.6305
-0.6908 -105.961 -74.5442
-0.5427 -105.926 -74.4012
-0.2399 -106.065 -74.9938
-0.0916 -106.036 -74.8763
0.0567 -106.012 -74.7746
0.2056 -106.003 -74.7416
0.3546 -105.997 -74.7215
0.5022 -105.966 -74.5946
0.6528 -105.994 -74.7123
0.802 -105.993 -74.7117
0.9484 -105.945 -74.5154
1.0938 -105.886 -74.2674
-8.6203 -106.412 -75.5981
-8.4687 -106.397 -75.5392
-8.3134 -106.352 -75.3515
-8.16 -106.32 -75.2233
-8.0079 -106.297 -75.1317
-7.8536 -106.254 -74.956
-7.704 -106.251 -74.9471
-7.56 -106.296 -75.1418
-7.41 -106.29 -75.1206
-7.2595 -106.279 -75.0783
-7.108 -106.257 -74.9906
-6.9577 -106.246 -74.9484
-6.6625 -106.28 -75.0974
-6.5118 -106.265 -75.0384
-6.3605 -106.241 -74.9444
-6.2103 -106.229 -74.8997
-6.0614 -106.233 -74.9196
-5.9122 -106.233 -74.9224
-5.7627 -106.229 -74.9082
-5.6133 -106.225 -74.8985
-5.4654 -106.243 -74.9778
-5.3148 -106.224 -74.9002
-5.1627 -106.178 -74.7129
-5.0129 -106.165 -74.6624
-4.864 -106.168 -74.6774
-4.7146 -106.162 -74.6563
-4.5647 -106.144 -74.5863
-4.4147 -106.124 -74.5063
-4.2677 -106.166 -74.6876
-4.1185 -106.164 -74.6813
-3.9698 -106.173 -74.7225
-3.8206 -106.17 -74.7143
-3.6711 -106.158 -74.6682
-3.5207 -106.114 -74.4876
-3.3722 -106.13 -74.5562
-3.2249 -106.199 -74.851
-3.0759 -106.21 -74.8998
-2.9265 -106.203 -74.8761
-2.7771 -106.192 -74.8356
-2.628 -106.201 -74.8762
-2.4785 -106.173 -74.7609
-2.3291 -106.139 -74.6222
-2.18 -106.143 -74.6433
-2.031 -106.164 -74.7332
-1.8818 -106.148 -74.6688
-1.7327 -106.143 -74.6517
-1.5837 -106.135 -74.6236
-1.4345 -106.146 -74.6724
-1.2851 -106.16 -74.7369
-1.1358 -106.17 -74.7791
-0.9867 -106.163 -74.7542
-0.8375 -106.164 -74.7625
-0.6886 -106.149 -74.705
-0.2393 -106.199 -74.9218
-0.0902 -106.192 -74.8974
0.058 -106.164 -74.7845
0.2071 -106.161 -74.7729
0.3557 -106.147 -74.7173
0.5042 -106.132 -74.6569
0.654 -106.144 -74.7101
-8.1594 -106.473 -75.2348
-8.009 -106.465 -75.2033
-7.8533 -106.41 -74.9799
-7.5594 -106.451 -75.1578
-7.4106 -106.455 -75.1818
-7.261 -106.453 -75.1772
-7.1092 -106.429 -75.08
-6.9554 -106.383 -74.8933
-6.8092 -106.414 -75.0249
-6.6595 -106.41 -75.0108
-6.5103 -106.41 -75.0161
-6.3598 -106.396 -74.9612
-6.2094 -106.381 -74.905
-6.0611 -106.392 -74.9525
-5.912 -106.393 -74.963
-5.762 -106.383 -74.9243
-5.6115 -106.366 -74.8562
-5.4635 -106.382 -74.9273
-5.3134 -106.369 -74.877
-5.1622 -106.337 -74.7492
-5.0125 -106.326 -74.7083
-4.8633 -106.325 -74.7044
-4.7136 -106.313 -74.659
-4.5631 -106.284 -74.5412
-4.4138 -106.278 -74.5211
-4.2662 -106.308 -74.6488
-4.1181 -106.328 -74.7392
-3.9692 -106.336 -74.7737
-3.8199 -106.329 -74.7514
-3.6703 -106.316 -74.7014
-3.5207 -106.299 -74.6316
-3.3718 -106.304 -74.656
-3.2232 -106.325 -74.7495
-3.0742 -106.332 -74.782
-2.9254 -106.353 -74.8713
-2.7761 -106.35 -74.8657
-2.6269 -106.351 -74.8742
-2.4774 -106.324 -74.7628
-2.328 -106.291 -74.6285
-2.179 -106.306 -74.6953
-2.0298 -106.316 -74.7391
-1.8807 -106.304 -74.6941
-1.7316 -106.289 -74.6333
-1.5827 -106.272 -74.568
-1.4332 -106.306 -74.7142
-1.2837 -106.33 -74.8164
-1.1344 -106.336 -74.8436
-0.9851 -106.334 -74.8401
-0.8359 -106.33 -74.8277
-0.0888 -106.349 -74.922
0.0593 -106.319 -74.8002
0.2079 -106.302 -74.7336
