22.1988 -68.0464 -71.7018
22.3506 -68.0476 -71.7395
22.5041 -68.0496 -71.7906
22.6583 -68.0519 -71.8472
22.8113 -68.0536 -71.8935
22.9625 -68.0544 -71.9241
23.1133 -68.055 -71.9506
23.2643 -68.0557 -71.9784
-21.2393 -68.7121 -75.1913
-21.0483 -68.6841 -74.7329
-20.8656 -68.661 -74.3582
-20.6902 -68.6423 -74.059
-20.5191 -68.6262 -73.8036
-20.3509 -68.6117 -73.5767
-20.186 -68.5991 -73.3828
-20.0254 -68.5893 -73.2355
-19.8686 -68.5818 -73.1291
-19.7127 -68.5749 -73.0323
-19.5563 -68.5676 -72.9278
-19.4006 -68.5606 -72.8295
-19.2467 -68.5548 -72.7514
-19.0942 -68.5499 -72.6887
-18.9428 -68.5457 -72.6383
-18.7934 -68.5429 -72.6111
-18.6463 -68.5417 -72.6119
-18.4999 -68.541 -72.621
-18.3518 -68.539 -72.6094
-18.2021 -68.5359 -72.5778
-18.0532 -68.5334 -72.555
-17.9051 -68.5314 -72.5431
-17.7563 -68.5289 -72.5201
-17.6062 -68.5253 -72.4808
-17.4563 -68.5219 -72.4437
-17.3076 -68.5194 -72.4212
-17.159 -68.5169 -72.3987
-17.0102 -68.5142 -72.3739
-16.8618 -68.5118 -72.3545
-16.7128 -68.5089 -72.3257
-16.563 -68.5054 -72.2859
-16.4132 -68.5017 -72.2444
-16.2628 -68.4976 -72.1938
-16.1115 -68.4925 -72.1282
-15.9594 -68.4868 -72.0513
-15.8072 -68.4808 -71.969
-15.6555 -68.4753 -71.894
-15.5049 -68.4705 -71.8326
-15.3555 -68.4668 -71.7893
-15.2079 -68.4646 -71.7734
-15.0615 -68.4635 -71.7747
-14.9144 -68.4618 -71.7661
-14.766 -68.4588 -71.7358
-14.617 -68.4552 -71.6949
-14.4685 -68.4521 -71.6619
-14.3217 -68.4505 -71.655
-14.1765 -68.4505 -71.6753
-14.0314 -68.4506 -71.6992
-13.8847 -68.4491 -71.6941
-13.7369 -68.4466 -71.6704
-13.5895 -68.4444 -71.6539
-13.4437 -68.4438 -71.6644
-13.2992 -68.4447 -71.7011
-13.1553 -68.4462 -71.7466
-13.0106 -68.447 -71.7807
-12.8646 -68.4463 -71.7896
-12.7177 -68.4447 -71.7828
-12.5718 -68.4441 -71.7939
-12.426 -68.4438 -71.809
-12.2786 -68.4416 -71.7903
-12.1301 -68.438 -71.75
-11.9821 -68.4351 -71.7203
-11.8349 -68.433 -71.7031
-11.6876 -68.4307 -71.685
-11.5398 -68.4279 -71.6565
-11.3917 -68.4246 -71.6194
-11.2442 -68.422 -71.5953
-11.0985 -68.4216 -71.6095
-10.9533 -68.422 -71.6358
-10.8073 -68.4213 -71.6442
-10.6604 -68.4195 -71.6334
-10.5134 -68.4174 -71.618
-10.3673 -68.4167 -71.6256
-10.2215 -68.4163 -71.6389
-10.0746 -68.4145 -71.628
-9.9272 -68.4117 -71.6001
-9.78 -68.4093 -71.5782
-9.6334 -68.4077 -71.5712
-9.4867 -68.4061 -71.5628
-9.3391 -68.4029 -71.5274
-9.1914 -68.3993 -71.4855
-9.0451 -68.3981 -71.486
-8.8997 -68.3985 -71.5121
-8.7531 -68.3969 -71.5035
-8.6058 -68.3939 -71.4721
-8.459 -68.3918 -71.4556
-8.3135 -68.392 -71.4793
-8.1681 -68.3924 -71.5064
-8.0218 -68.3913 -71.5067
-7.8751 -68.3895 -71.495
-7.7284 -68.3874 -71.4799
-7.5815 -68.3849 -71.4558
-7.4345 -68.3821 -71.4277
-7.288 -68.3804 -71.4171
-7.1426 -68.3811 -71.4496
-6.9977 -68.3833 -71.5072
-6.852 -68.3836 -71.532
-6.7056 -68.3822 -71.5273
-6.5589 -68.3801 -71.5105
-6.4121 -68.3777 -71.4884
-6.2655 -68.3756 -71.4716
-6.1191 -68.374 -71.4633
-5.9727 -68.3724 -71.4561
-5.8263 -68.371 -71.4514
-5.6801 -68.37 -71.453
-5.5337 -68.3684 -71.4449
-5.3868 -68.3651 -71.4075
-5.2397 -68.361 -71.3551
-5.0931 -68.3581 -71.3249
-4.9471 -68.3579 -71.3402
-4.8015 -68.3592 -71.3832
-4.6558 -68.3602 -71.4198
-4.5096 -68.3593 -71.4234
-4.3631 -68.357 -71.4032
-4.2167 -68.3548 -71.3834
-4.0703 -68.3528 -71.3684
-3.9241 -68.3517 -71.3683
-3.7781 -68.3524 -71.4002
-3.6321 -68.3531 -71.4312
-3.4858 -68.3515 -71.4229
-3.3394 -68.3487 -71.3936
-3.1931 -68.3471 -71.385
-3.0469 -68.3466 -71.3962
-2.9007 -68.3454 -71.3947
-2.7543 -68.3428 -71.3683
-2.608 -68.3402 -71.3419
-2.4618 -68.3387 -71.3351
-2.3156 -68.3382 -71.3446
-2.1694 -68.3373 -71.3482
-2.0232 -68.3358 -71.3422
-1.877 -68.334 -71.3295
-1.7308 -68.3322 -71.3169
-1.5846 -68.3299 -71.2966
-1.4385 -68.3269 -71.263
-1.2924 -68.3244 -71.2377
-1.1462 -68.3238 -71.247
-0.9999 -68.3249 -71.2842
-0.8536 -68.3252 -71.3093
-0.7074 -68.3239 -71.3051
-0.5613 -68.3216 -71.2833
-0.4153 -68.319 -71.2573
-0.2693 -68.3171 -71.2436
-0.1231 -68.316 -71.2425
0.0231 -68.3152 -71.2465
0.1693 -68.3143 -71.2505
0.3155 -68.3134 -71.254
0.4618 -68.3128 -71.2616
0.608 -68.3117 -71.2608
0.7541 -68.3104 -71.2575
0.9006 -68.3102 -71.2723
1.047 -68.3099 -71.2847
1.193 -68.3083 -71.2755
1.3391 -68.3065 -71.2643
1.4852 -68.3051 -71.2579
1.6312 -68.3035 -71.2482
1.7773 -68.3021 -71.2426
1.9236 -68.3013 -71.2476
2.0701 -68.301 -71.26
2.2165 -68.3006 -71.2718
2.3626 -68.2992 -71.2652
2.5085 -68.2971 -71.2473
2.6543 -68.2951 -71.2303
2.8001 -68.293 -71.2127
2.9461 -68.2914 -71.2034
3.0926 -68.2911 -71.2154
3.2393 -68.2911 -71.2346
3.3857 -68.2905 -71.2411
3.5318 -68.2891 -71.2359
3.6779 -68.2877 -71.2303
3.824 -68.2865 -71.2262
3.9703 -68.2854 -71.2261
4.117 -68.2853 -71.2414
4.264 -68.2858 -71.2687
4.4106 -68.2852 -71.277
4.5562 -68.283 -71.2562
4.7019 -68.2809 -71.237
4.8478 -68.2792 -71.2261
4.9932 -68.2767 -71.2009
5.1381 -68.2735 -71.1624
5.2837 -68.2714 -71.1443
5.4305 -68.2714 -71.1614
5.5774 -68.2715 -71.1809
5.7237 -68.2704 -71.18
5.8698 -68.2692 -71.1768
6.0162 -68.2684 -71.1814
6.1629 -68.2679 -71.1908
6.3092 -68.267 -71.1925
6.455 -68.2653 -71.1795
6.6001 -68.2627 -71.1534
6.7454 -68.2604 -71.1305
6.8915 -68.2592 -71.127
7.0379 -68.2583 -71.1295
7.1834 -68.2563 -71.1123
7.3277 -68.2529 -71.0698
7.472 -68.2496 -71.0293
7.6181 -68.2484 -71.0259
7.7656 -68.249 -71.0543
7.9134 -68.2498 -71.0869
8.0609 -68.2502 -71.111
8.2083 -68.2505 -71.134
8.3555 -68.2505 -71.152
8.5014 -68.2491 -71.1448
8.6464 -68.2467 -71.1194
8.7918 -68.2447 -71.1016
8.9379 -68.2435 -71.0986
9.0846 -68.243 -71.1069
9.2316 -68.2427 -71.1192
9.3785 -68.2423 -71.1295
9.5252 -68.2416 -71.1359
9.6716 -68.2407 -71.1371
9.8177 -68.2395 -71.1323
9.9635 -68.238 -71.1238
10.1093 -68.2365 -71.1147
10.255 -68.2348 -71.1032
10.4004 -68.233 -71.0879
10.5465 -68.2317 -71.083
10.6938 -68.2316 -71.0984
10.8412 -68.2317 -71.1164
10.9886 -68.2316 -71.132
11.1362 -68.2316 -71.1502
11.2834 -68.2314 -71.1631
11.4297 -68.2303 -71.1609
11.5751 -68.2284 -71.1451
11.7202 -68.2263 -71.1253
11.8661 -68.225 -71.119
12.0146 -68.2257 -71.1492
12.1644 -68.2275 -71.197
12.3133 -68.2286 -71.2326
12.4613 -68.2288 -71.2536
12.6073 -68.2274 -71.2461
12.7515 -68.2245 -71.2128
12.8955 -68.2216 -71.1787
13.0418 -68.2205 -71.1758
13.1906 -68.2213 -71.2064
13.3392 -68.2219 -71.2344
13.4862 -68.2213 -71.2404
13.6321 -68.2198 -71.2314
13.7779 -68.2183 -71.222
13.9245 -68.2174 -71.2215
14.0722 -68.2173 -71.2367
14.221 -68.2179 -71.2645
14.3709 -68.2193 -71.3054
14.5201 -68.2201 -71.3372
14.6646 -68.2176 -71.31
14.8071 -68.2138 -71.2591
14.9538 -68.2129 -71.2603
15.102 -68.2131 -71.2794
15.2488 -68.2122 -71.2809
15.3952 -68.211 -71.2768
15.5423 -68.2104 -71.2828
15.689 -68.2095 -71.2828
15.8353 -68.2083 -71.2775
15.9821 -68.2074 -71.2793
16.1288 -68.2065 -71.2788
16.2754 -68.2055 -71.278
16.4235 -68.2054 -71.2925
16.5714 -68.2052 -71.3063
16.7182 -68.2043 -71.3059
16.8646 -68.2031 -71.3022
17.011 -68.202 -71.2985
17.1572 -68.2007 -71.2928
17.3032 -68.1994 -71.2846
17.4491 -68.1979 -71.275
17.596 -68.197 -71.276
17.7445 -68.1971 -71.2937
17.8918 -68.1965 -71.2993
18.0368 -68.1945 -71.2807
18.1825 -68.193 -71.2695
18.3304 -68.1927 -71.2808
18.4792 -68.1929 -71.3001
18.6279 -68.193 -71.3187
18.7768 -68.1933 -71.3388
18.9257 -68.1935 -71.3587
19.0746 -68.1937 -71.378
19.2244 -68.1943 -71.4052
19.3742 -68.195 -71.4334
19.5229 -68.195 -71.4489
19.669 -68.1936 -71.4408
19.8142 -68.1917 -71.4235
19.9615 -68.191 -71.4267
20.1105 -68.1911 -71.4449
20.2585 -68.1907 -71.4539
20.405 -68.1895 -71.4487
20.5529 -68.1891 -71.4563
20.7051 -68.1908 -71.5027
20.859 -68.1934 -71.564
21.0118 -68.1954 -71.6144
21.1612 -68.1955 -71.6333
21.3071 -68.194 -71.6223
21.4535 -68.1927 -71.6146
21.6034 -68.1931 -71.6378
21.755 -68.1944 -71.6758
21.9063 -68.1954 -71.7101
22.0572 -68.1963 -71.7401
22.208 -68.1971 -71.77
22.3589 -68.1979 -71.7995
22.5116 -68.1995 -71.8439
22.6663 -68.202 -71.9037
22.8187 -68.2034 -71.9442
22.9682 -68.2035 -71.9604
23.1184 -68.2038 -71.9822
-21.222 -68.8507 -75.0163
-21.0335 -68.8239 -74.5829
-20.8534 -68.8022 -74.2368
-20.6808 -68.7851 -73.9679
-20.512 -68.7702 -73.7365
-20.3452 -68.7564 -73.5244
-20.1806 -68.7439 -73.3347
-20.0197 -68.7337 -73.1826
-19.8628 -68.7261 -73.0752
-19.7073 -68.7194 -72.9825
-19.5515 -68.7123 -72.8843
-19.3961 -68.7055 -72.7899
-19.2426 -68.6999 -72.7161
-19.0906 -68.6953 -72.6589
-18.9394 -68.6912 -72.6107
-18.7899 -68.6883 -72.5822
-18.643 -68.6872 -72.5849
-18.497 -68.6868 -72.5991
-18.349 -68.6849 -72.5889
-18.1992 -68.6817 -72.5559
-18.0503 -68.6791 -72.5322
-17.9027 -68.6774 -72.5256
-17.7545 -68.6754 -72.5116
-17.6043 -68.6717 -72.4709
-17.4541 -68.668 -72.4285
-17.3054 -68.6655 -72.4066
-17.1568 -68.6629 -72.3845
-17.0089 -68.661 -72.3718
-16.8619 -68.6598 -72.3724
-16.7129 -68.6568 -72.343
-16.5628 -68.653 -72.2985
-16.4129 -68.6493 -72.2568
-16.2624 -68.645 -72.2049
-16.1113 -68.6401 -72.1431
-15.9601 -68.635 -72.0771
-15.8085 -68.6296 -72.0062
-15.6569 -68.624 -71.9316
-15.5054 -68.6185 -71.8584
-15.3553 -68.6141 -71.8039
-15.2077 -68.6119 -71.7877
-15.0614 -68.6109 -71.7906
-14.9142 -68.6091 -71.7814
-14.7656 -68.606 -71.7483
-14.6165 -68.6023 -71.7057
-14.4676 -68.5987 -71.6658
-14.3196 -68.5959 -71.6386
-14.1735 -68.5951 -71.6445
-14.0288 -68.5956 -71.6744
-13.8835 -68.5956 -71.6942
-13.7364 -68.5936 -71.6818
-13.5884 -68.5909 -71.6551
-13.4415 -68.5891 -71.6457
-13.2963 -68.5892 -71.6683
-13.1517 -68.5901 -71.7028
-13.0067 -68.5905 -71.7296
-12.861 -68.59 -71.7427
-12.7147 -68.589 -71.7462
-12.5688 -68.5886 -71.7585
-12.4231 -68.5883 -71.7742
-12.2759 -68.5862 -71.7593
-12.1279 -68.5833 -71.7296
-11.9804 -68.5809 -71.7085
-11.8333 -68.5789 -71.6945
-11.686 -68.5767 -71.677
-11.5382 -68.5737 -71.6464
-11.3898 -68.5699 -71.6023
-11.2419 -68.5668 -71.5689
-11.0964 -68.5668 -71.5887
-10.9526 -68.5689 -71.6454
-10.8069 -68.5688 -71.6629
-10.6597 -68.5664 -71.6429
-10.5122 -68.5638 -71.6171
-10.3659 -68.5626 -71.6182
-10.2202 -68.5625 -71.6365
-10.0737 -68.5612 -71.6335
-9.9264 -68.5585 -71.6082
-9.779 -68.5559 -71.5827
-9.632 -68.5537 -71.5652
-9.4851 -68.5516 -71.5494
-9.3377 -68.5487 -71.5194
-9.1904 -68.5459 -71.4916
-9.0444 -68.5452 -71.4993
-8.8987 -68.5451 -71.5168
-8.7521 -68.5434 -71.5086
-8.6049 -68.5406 -71.4802
-8.4577 -68.5377 -71.4505
-8.3118 -68.5372 -71.4615
-8.1664 -68.5378 -71.4913
-8.0205 -68.5374 -71.5033
-7.8742 -68.5361 -71.501
-7.7274 -68.5341 -71.4856
-7.5805 -68.5314 -71.4596
-7.4335 -68.5288 -71.4342
-7.2871 -68.5272 -71.4278
-7.1416 -68.5277 -71.455
-6.9964 -68.5293 -71.5011
-6.8507 -68.5296 -71.5263
-6.7043 -68.5281 -71.5208
-6.5576 -68.5258 -71.5011
-6.4108 -68.5235 -71.4804
-6.2643 -68.5218 -71.4709
-6.118 -68.5204 -71.4661
-5.9714 -68.5183 -71.4496
-5.8248 -68.5161 -71.4317
-5.6785 -68.5149 -71.4299
-5.5323 -68.5139 -71.4314
-5.3857 -68.5115 -71.4104
-5.2388 -68.5079 -71.3672
-5.0921 -68.5049 -71.3352
-4.946 -68.5043 -71.3449
-4.8004 -68.5054 -71.3823
-4.6545 -68.506 -71.4118
-4.5083 -68.5049 -71.4123
-4.3619 -68.503 -71.3984
-4.2155 -68.5012 -71.3864
-4.0692 -68.4993 -71.3726
-3.9229 -68.4977 -71.3643
-3.7768 -68.4972 -71.3755
-3.6306 -68.4968 -71.3876
-3.4844 -68.4956 -71.3852
-3.3381 -68.4939 -71.3761
-3.1919 -68.4928 -71.3758
-3.0457 -68.4925 -71.3892
-2.8995 -68.4916 -71.3927
-2.7532 -68.4894 -71.3746
-2.6069 -68.487 -71.3519
-2.4606 -68.4854 -71.3432
-2.3144 -68.4847 -71.3497
-2.1682 -68.484 -71.3576
-2.022 -68.4824 -71.3479
-1.8758 -68.4801 -71.3278
-1.7296 -68.4782 -71.3136
-1.5834 -68.4764 -71.3015
-1.4373 -68.4739 -71.2774
-1.2912 -68.4715 -71.254
-1.145 -68.4706 -71.2572
-0.9987 -68.4712 -71.2871
-0.8524 -68.4716 -71.3121
-0.7062 -68.4699 -71.3016
-0.5602 -68.4671 -71.2724
-0.4142 -68.4649 -71.2532
-0.2681 -68.4636 -71.2495
-0.1219 -68.4625 -71.2479
0.0243 -68.4616 -71.2516
0.1706 -68.4609 -71.2576
0.3168 -68.4602 -71.2649
0.4631 -68.4598 -71.2754
0.6092 -68.4581 -71.2655
0.7553 -68.4565 -71.256
0.9017 -68.4563 -71.271
1.0482 -68.4564 -71.291
1.1944 -68.4551 -71.2865
1.3406 -68.454 -71.2853
1.4867 -68.4526 -71.2807
1.6327 -68.4507 -71.2653
1.7786 -68.4487 -71.2504
1.9248 -68.4475 -71.2478
2.0712 -68.447 -71.2561
2.2176 -68.4464 -71.264
2.3637 -68.4452 -71.2621
2.5097 -68.4435 -71.2512
2.6556 -68.4415 -71.2354
2.8013 -68.4393 -71.2149
2.9473 -68.4376 -71.203
3.0936 -68.4369 -71.2102
3.2402 -68.4367 -71.2236
3.3865 -68.4358 -71.2265
3.5326 -68.4346 -71.2233
3.679 -68.4338 -71.2283
3.8254 -68.4332 -71.2352
3.9718 -68.4323 -71.2378
4.1182 -68.4317 -71.2454
4.265 -68.4316 -71.2614
4.4114 -68.4308 -71.2657
4.557 -68.4285 -71.2446
4.7026 -68.4262 -71.2228
4.8484 -68.4244 -71.2085
4.9938 -68.4219 -71.1835
5.1388 -68.4188 -71.148
5.2845 -68.417 -71.1343
5.4314 -68.4171 -71.1541
5.5781 -68.4169 -71.1678
5.724 -68.4153 -71.1583
5.87 -68.4138 -71.1506
6.0165 -68.4133 -71.1588
6.1632 -68.4128 -71.1685
6.3093 -68.4116 -71.1648
6.4549 -68.4097 -71.1494
6.6005 -68.4077 -71.1331
6.7462 -68.406 -71.1212
6.8923 -68.4048 -71.1182
7.0384 -68.4036 -71.1152
7.1839 -68.4016 -71.0968
7.3285 -68.3986 -71.0621
7.4731 -68.3955 -71.0271
7.619 -68.3942 -71.0217
7.7666 -68.3948 -71.0493
7.9143 -68.3956 -71.0798
8.0615 -68.3957 -71.0998
8.2088 -68.3959 -71.1205
8.3564 -68.3964 -71.1466
8.5031 -68.3959 -71.1549
8.6485 -68.3939 -71.1376
8.7938 -68.3917 -71.1172
8.9398 -68.3904 -71.1119
9.0869 -68.3903 -71.1262
9.2342 -68.3903 -71.1443
9.3808 -68.3896 -71.1484
9.527 -68.3884 -71.1463
9.6735 -68.3876 -71.1494
9.82 -68.3868 -71.1522
9.9661 -68.3855 -71.1472
10.1119 -68.384 -71.1383
10.2577 -68.3825 -71.1285
10.4032 -68.3807 -71.1139
10.5486 -68.3788 -71.0992
10.6949 -68.3778 -71.0978
10.8422 -68.3776 -71.112
10.9899 -68.3779 -71.134
11.1376 -68.3781 -71.1546
11.2848 -68.3778 -71.166
11.4312 -68.3768 -71.1662
11.5771 -68.3754 -71.1581
11.7227 -68.3737 -71.1449
11.8689 -68.3725 -71.1414
12.0167 -68.3727 -71.1624
12.166 -68.3741 -71.203
12.315 -68.3752 -71.2388
12.4629 -68.3754 -71.2588
12.609 -68.3741 -71.253
12.7532 -68.3713 -71.2203
12.897 -68.3681 -71.1829
13.0421 -68.3661 -71.1633
13.1891 -68.3655 -71.1709
13.3371 -68.3657 -71.1899
13.4846 -68.3655 -71.2038
13.6317 -68.3649 -71.2103
13.7782 -68.364 -71.2104
13.925 -68.3632 -71.2134
14.0731 -68.3634 -71.233
14.2233 -68.3651 -71.2782
14.3738 -68.3669 -71.3267
14.5213 -68.3665 -71.337
14.6651 -68.3636 -71.3017
14.8081 -68.36 -71.2569
14.9532 -68.358 -71.2382
15.1005 -68.3576 -71.2464
15.2474 -68.3568 -71.2501
15.3944 -68.3561 -71.254
15.5423 -68.356 -71.2679
15.6892 -68.3552 -71.2708
15.8347 -68.3534 -71.2566
15.9802 -68.3517 -71.2433
16.126 -68.3503 -71.2336
16.2725 -68.3492 -71.2311
16.4207 -68.3493 -71.2486
16.5696 -68.3497 -71.2722
16.7171 -68.3493 -71.2814
16.8644 -68.3487 -71.2866
17.0116 -68.348 -71.2915
17.1586 -68.3472 -71.2939
17.3054 -68.3464 -71.2949
17.4524 -68.3456 -71.2971
17.6 -68.3451 -71.3053
17.7481 -68.345 -71.3187
17.895 -68.3441 -71.32
18.04 -68.3421 -71.3008
18.1854 -68.3404 -71.2863
18.3333 -68.3401 -71.2972
18.4821 -68.3403 -71.3167
18.6302 -68.3401 -71.3293
18.7791 -68.3404 -71.3498
18.9289 -68.3411 -71.3783
19.0786 -68.3418 -71.4054
19.2285 -68.3425 -71.4335
19.3779 -68.3429 -71.4563
19.5262 -68.3427 -71.4696
19.6735 -68.3419 -71.4714
19.8203 -68.3409 -71.4692
19.9677 -68.3402 -71.4732
20.1154 -68.3397 -71.4788
20.2622 -68.3387 -71.4769
20.4085 -68.3373 -71.4696
20.5567 -68.337 -71.4799
20.709 -68.3388 -71.5268
20.8636 -68.3418 -71.5943
21.0168 -68.344 -71.6476
21.1655 -68.3439 -71.6609
21.3116 -68.3424 -71.6512
21.4601 -68.3421 -71.6615
21.6121 -68.3436 -71.7031
21.7647 -68.3454 -71.7486
21.9155 -68.3462 -71.7784
22.0655 -68.3466 -71.8011
22.2156 -68.3471 -71.8241
22.3653 -68.3473 -71.8431
22.5175 -68.3486 -71.8825
22.6722 -68.3512 -71.9426
22.8238 -68.3523 -71.9769
22.9721 -68.3518 -71.9827
23.1207 -68.3514 -71.9908
-21.3955 -69.0173 -75.2922
-21.2032 -68.9881 -74.8245
-21.0175 -68.9628 -74.4211
-20.8412 -68.9432 -74.1149
-20.6716 -68.9278 -73.8777
-20.5048 -68.914 -73.6688
-20.3396 -68.9011 -73.474
-20.1757 -68.889 -73.2914
-20.0143 -68.8783 -73.1344
-19.8569 -68.8703 -73.0201
-19.7017 -68.8636 -72.9301
-19.5466 -68.857 -72.8406
-19.3917 -68.8504 -72.7506
-19.2382 -68.8447 -72.6764
-19.0865 -68.8402 -72.6222
-18.9355 -68.8362 -72.5763
-18.786 -68.8333 -72.548
-18.6394 -68.8324 -72.5539
-18.4936 -68.8322 -72.5715
-18.3457 -68.8304 -72.5617
-18.1961 -68.8272 -72.5303
-18.0474 -68.8248 -72.5102
-17.9001 -68.8234 -72.5071
-17.7527 -68.8219 -72.5028
-17.6034 -68.8189 -72.4739
-17.4536 -68.8155 -72.4367
-17.3054 -68.8133 -72.4211
-17.1569 -68.8109 -72.4021
-17.0079 -68.8081 -72.3748
-16.8614 -68.8072 -72.3814
-16.7131 -68.8048 -72.3617
-16.5623 -68.8004 -72.3087
-16.4122 -68.7964 -72.2621
-16.2617 -68.7921 -72.2106
-16.1111 -68.7877 -72.1568
-15.9606 -68.7832 -72.1024
-15.8096 -68.7783 -72.0392
-15.658 -68.7726 -71.965
-15.5063 -68.7668 -71.8884
-15.3562 -68.7625 -71.8354
-15.2083 -68.7601 -71.8152
-15.0613 -68.7584 -71.8075
-14.9133 -68.7558 -71.7839
-14.7644 -68.7523 -71.7465
-14.6158 -68.7491 -71.712
-14.4673 -68.7459 -71.6792
-14.3188 -68.7427 -71.6451
-14.1714 -68.7404 -71.6276
-14.0262 -68.7405 -71.6486
-13.8814 -68.741 -71.6774
-13.7349 -68.7397 -71.6755
-13.5871 -68.737 -71.6512
-13.4399 -68.7351 -71.6385
-13.2941 -68.7345 -71.6493
-13.1487 -68.7345 -71.6684
-13.0032 -68.7342 -71.6843
-12.8572 -68.7336 -71.6938
-12.7113 -68.733 -71.7039
-12.566 -68.7331 -71.7266
-12.4203 -68.7329 -71.742
-12.273 -68.7307 -71.7257
-12.1254 -68.7281 -71.7012
-11.9784 -68.7263 -71.6909
-11.8317 -68.7248 -71.6854
-11.6846 -68.7227 -71.6705
-11.5368 -68.7197 -71.6402
-11.3881 -68.7157 -71.5916
-11.2399 -68.7119 -71.5487
-11.0943 -68.7118 -71.5655
-10.9509 -68.7147 -71.6345
-10.8055 -68.7148 -71.6562
-10.6583 -68.7125 -71.6376
-10.5108 -68.7098 -71.6115
-10.3643 -68.7084 -71.607
-10.2184 -68.708 -71.6202
-10.0719 -68.7065 -71.6154
-9.9244 -68.7037 -71.5879
-9.7771 -68.7011 -71.5631
-9.6303 -68.6991 -71.5496
-9.4835 -68.6971 -71.5357
-9.3365 -68.6948 -71.5164
-9.1898 -68.6931 -71.5059
-9.0439 -68.6927 -71.5188
-8.898 -68.6922 -71.5298
-8.7515 -68.6906 -71.5228
-8.6043 -68.6878 -71.4958
-8.4568 -68.6844 -71.4571
-8.3102 -68.6826 -71.4461
-8.1646 -68.6827 -71.4681
-8.019 -68.683 -71.4915
-7.8728 -68.6819 -71.4925
-7.7258 -68.6792 -71.4664
-7.5788 -68.6765 -71.4394
-7.4323 -68.6749 -71.4317
-7.2864 -68.6745 -71.4451
-7.1411 -68.6755 -71.4813
-6.9957 -68.6766 -71.5196
-6.8497 -68.6761 -71.53
-6.7029 -68.6738 -71.5103
-6.556 -68.671 -71.4822
-6.4093 -68.6687 -71.4626
-6.263 -68.6676 -71.4626
-6.1168 -68.6666 -71.4652
-5.9702 -68.6644 -71.4461
-5.8233 -68.6615 -71.4163
-5.6769 -68.6595 -71.4022
-5.5307 -68.6587 -71.407
-5.3845 -68.6575 -71.4053
-5.2379 -68.655 -71.382
-5.0913 -68.6525 -71.3587
-4.9452 -68.6517 -71.3651
-4.7994 -68.6522 -71.3927
-4.6533 -68.652 -71.4073
-4.507 -68.6505 -71.4015
-4.3607 -68.649 -71.3941
-4.2144 -68.6476 -71.3899
-4.0681 -68.6459 -71.3804
-3.9218 -68.6444 -71.3731
-3.7756 -68.6437 -71.3798
-3.6294 -68.6428 -71.3829
-3.4831 -68.641 -71.372
-3.3368 -68.6392 -71.3597
-3.1906 -68.638 -71.3582
-3.0445 -68.6376 -71.3711
-2.8983 -68.6372 -71.3822
-2.752 -68.6358 -71.3765
-2.6058 -68.634 -71.3651
-2.4595 -68.6324 -71.3562
-2.3133 -68.6311 -71.3525
-2.1671 -68.63 -71.3532
-2.0208 -68.6287 -71.3493
-1.8746 -68.6268 -71.335
-1.7284 -68.6249 -71.3217
-1.5822 -68.6232 -71.3115
-1.4361 -68.6211 -71.2938
-1.29 -68.6187 -71.2729
-1.1438 -68.6174 -71.2693
-0.9975 -68.6175 -71.2885
-0.8513 -68.6175 -71.3068
-0.7051 -68.616 -71.3
-0.5591 -68.6134 -71.2735
-0.413 -68.6115 -71.2608
-0.2668 -68.6107 -71.2653
-0.1205 -68.6102 -71.2741
0.0258 -68.6097 -71.2843
0.172 -68.6086 -71.2842
0.3182 -68.6077 -71.2871
0.4644 -68.6064 -71.2837
0.6104 -68.6042 -71.2642
0.7564 -68.6025 -71.2528
0.9028 -68.6022 -71.2651
1.0493 -68.6022 -71.284
1.1957 -68.6019 -71.2966
1.3421 -68.6012 -71.3036
1.4882 -68.6 -71.3
1.6341 -68.5977 -71.2792
1.7799 -68.5952 -71.2558
1.9259 -68.5936 -71.2464
2.0722 -68.5926 -71.2475
2.2184 -68.5916 -71.2473
2.3646 -68.5904 -71.2453
2.5108 -68.5893 -71.2445
2.6569 -68.5879 -71.2386
2.8027 -68.586 -71.2232
2.9486 -68.5842 -71.2114
3.0949 -68.5833 -71.214
3.2414 -68.5828 -71.2227
3.3877 -68.582 -71.2263
3.5339 -68.581 -71.2279
3.6804 -68.5805 -71.2365
3.8269 -68.58 -71.2454
3.9732 -68.579 -71.2463
4.1194 -68.5778 -71.2437
4.2656 -68.5768 -71.244
4.4117 -68.5753 -71.2372
4.5573 -68.5731 -71.216
4.7029 -68.5708 -71.1956
4.8487 -68.569 -71.1821
4.9941 -68.5667 -71.1604
5.1393 -68.5639 -71.13
5.2851 -68.5622 -71.1194
5.4319 -68.5622 -71.1362
5.5785 -68.5617 -71.1457
5.7243 -68.5601 -71.1352
5.8705 -68.559 -71.1334
6.0173 -68.5588 -71.1475
6.1637 -68.5581 -71.1526
6.3092 -68.5559 -71.1329
6.4545 -68.5536 -71.1107
6.6006 -68.5524 -71.1088
6.7473 -68.5521 -71.1197
6.8936 -68.5512 -71.1216
7.0393 -68.5494 -71.1088
7.1846 -68.5471 -71.0861
7.3295 -68.5444 -71.0569
7.4745 -68.5419 -71.0328
7.6209 -68.5411 -71.0349
7.7684 -68.5417 -71.0639
7.9159 -68.5423 -71.0894
8.0627 -68.5418 -71.0996
8.2097 -68.5418 -71.1159
8.3575 -68.5425 -71.1447
8.5047 -68.5425 -71.1626
8.6507 -68.5412 -71.1568
8.7963 -68.5393 -71.1416
8.9423 -68.538 -71.1362
9.0898 -68.5383 -71.1589
9.2376 -68.5389 -71.1848
9.3835 -68.5374 -71.1761
9.5289 -68.5354 -71.1596
9.6753 -68.5344 -71.1598
9.8222 -68.5341 -71.17
9.9689 -68.5333 -71.1747
10.1151 -68.5322 -71.1721
10.2611 -68.5308 -71.1654
10.4065 -68.5289 -71.1485
10.5515 -68.5266 -71.1257
10.697 -68.5248 -71.113
10.8439 -68.5244 -71.1214
10.9916 -68.5246 -71.1424
11.1391 -68.5246 -71.1589
11.2859 -68.524 -71.165
11.4324 -68.5231 -71.1664
11.5789 -68.5221 -71.1667
11.7251 -68.521 -71.1632
11.8714 -68.5199 -71.1614
12.0187 -68.5196 -71.1736
12.167 -68.5202 -71.1997
12.3155 -68.521 -71.2298
12.4635 -68.5212 -71.2504
12.6101 -68.5203 -71.2505
12.755 -68.518 -71.2279
12.899 -68.515 -71.1936
13.0433 -68.5123 -71.1638
13.1887 -68.5105 -71.1488
13.3353 -68.5097 -71.1505
13.4828 -68.5095 -71.1638
13.6306 -68.5095 -71.1802
13.7784 -68.5095 -71.1969
13.9261 -68.5094 -71.2116
14.0746 -68.5099 -71.2361
14.225 -68.5118 -71.2849
14.3753 -68.5135 -71.3301
14.5214 -68.5122 -71.3239
14.6646 -68.5087 -71.2804
14.8074 -68.505 -71.2335
14.9523 -68.5029 -71.2125
15.0993 -68.5022 -71.2178
15.2465 -68.5017 -71.225
15.3937 -68.5012 -71.2314
15.5414 -68.501 -71.2439
15.6889 -68.5005 -71.2529
15.8344 -68.4988 -71.2393
15.9791 -68.4966 -71.2176
16.1239 -68.4945 -71.1964
16.2697 -68.4929 -71.1862
16.4181 -68.4931 -71.2056
16.5676 -68.494 -71.2372
16.7163 -68.4944 -71.2594
16.8644 -68.4944 -71.2745
17.0123 -68.4942 -71.2869
17.1601 -68.4939 -71.2978
17.3079 -68.4936 -71.3083
17.4556 -68.4933 -71.3184
17.6035 -68.493 -71.3297
17.7516 -68.4929 -71.3429
17.8985 -68.492 -71.3438
18.0439 -68.4902 -71.3282
18.1897 -68.4887 -71.3181
18.3378 -68.4885 -71.3306
18.4867 -68.4888 -71.3509
18.6351 -68.4888 -71.3665
18.7845 -68.4893 -71.3913
18.9348 -68.4903 -71.4238
19.0845 -68.491 -71.451
19.2334 -68.4911 -71.4693
19.3818 -68.491 -71.482
19.5302 -68.4908 -71.4952
19.6788 -68.4908 -71.5103
19.8272 -68.4907 -71.5232
19.975 -68.4902 -71.5299
20.122 -68.4892 -71.5286
20.2684 -68.4879 -71.5222
20.4149 -68.4867 -71.5173
20.563 -68.4864 -71.5263
20.7146 -68.4878 -71.5665
20.8687 -68.4906 -71.6289
21.0211 -68.4924 -71.6751
21.1696 -68.4922 -71.6867
21.3172 -68.4914 -71.689
21.4671 -68.4919 -71.7126
21.6195 -68.4936 -71.7567
21.7718 -68.4952 -71.799
21.9219 -68.4957 -71.8229
22.0708 -68.4955 -71.8358
22.2197 -68.4954 -71.848
22.369 -68.4954 -71.8635
22.5208 -68.4966 -71.8999
22.6754 -68.4992 -71.9593
22.8269 -68.5002 -71.992
22.9747 -68.4995 -71.9941
23.1238 -68.4993 -72.0059
-21.377 -69.155 -75.1051
-21.1864 -69.1265 -74.654
-21.0042 -69.1031 -74.2877
-20.8311 -69.0854 -74.0155
-20.6633 -69.071 -73.7979
-20.4978 -69.0579 -73.6026
-20.3338 -69.0457 -73.421
-20.1712 -69.0343 -73.2535
-20.0106 -69.024 -73.105
-19.8527 -69.0156 -72.9853
-19.6972 -69.0086 -72.8912
-19.5424 -69.0021 -72.8043
-19.3876 -68.9955 -72.7153
-19.2337 -68.9895 -72.6368
-19.0817 -68.9847 -72.5782
-18.9307 -68.9806 -72.5317
-18.7815 -68.9778 -72.5064
-18.6353 -68.9772 -72.5174
-18.4898 -68.9772 -72.5373
-18.3421 -68.9756 -72.5307
-18.1934 -68.9731 -72.5105
-18.0454 -68.9711 -72.4986
-17.8982 -68.9698 -72.4967
-17.7511 -68.9685 -72.4964
-17.6026 -68.9662 -72.4781
-17.453 -68.9629 -72.444
-17.3047 -68.9606 -72.4268
-17.1566 -68.9585 -72.413
-17.0077 -68.9557 -72.3865
-16.8606 -68.9544 -72.3853
-16.7126 -68.9523 -72.3713
-16.5621 -68.9481 -72.3218
-16.4117 -68.9439 -72.2722
-16.2615 -68.9398 -72.2242
-16.1113 -68.9356 -72.1751
-15.961 -68.9313 -72.1248
-15.8102 -68.9265 -72.0647
-15.6588 -68.921 -71.9947
-15.508 -68.9161 -71.9327
-15.3585 -68.9122 -71.8888
-15.2099 -68.9091 -71.857
-15.0614 -68.906 -71.8265
-14.9122 -68.9023 -71.7847
-14.7629 -68.8984 -71.7398
-14.6145 -68.8954 -71.7104
-14.4669 -68.893 -71.6907
-14.3188 -68.8902 -71.6643
-14.1709 -68.8875 -71.6384
-14.0242 -68.8861 -71.635
-13.8787 -68.8858 -71.65
-13.7322 -68.8845 -71.6485
-13.585 -68.8824 -71.6345
-13.4385 -68.8811 -71.6329
-13.2926 -68.8805 -71.6418
-13.1465 -68.8797 -71.6482
-13.0001 -68.8785 -71.6487
-12.8534 -68.877 -71.6436
-12.7073 -68.8762 -71.6498
-12.5624 -68.8767 -71.6788
-12.4171 -68.8768 -71.6999
-12.2701 -68.875 -71.6902
-12.1229 -68.8729 -71.6748
-11.9764 -68.8716 -71.6732
-11.83 -68.8704 -71.6727
-11.683 -68.8685 -71.6609
-11.5353 -68.8657 -71.6327
-11.3866 -68.8615 -71.5834
-11.2381 -68.8574 -71.5351
-11.0921 -68.8567 -71.5427
-10.9479 -68.8584 -71.5908
-10.8026 -68.8588 -71.6158
-10.6559 -68.8572 -71.609
-10.5088 -68.8549 -71.5912
-10.3624 -68.8536 -71.5886
-10.2163 -68.8528 -71.5948
-10.0694 -68.8509 -71.5819
-9.9217 -68.8476 -71.5462
-9.7744 -68.845 -71.5226
-9.6281 -68.8438 -71.5221
-9.4816 -68.8424 -71.5172
-9.3348 -68.8404 -71.5032
-9.1887 -68.8395 -71.5079
-9.0433 -68.8399 -71.535
-8.8975 -68.8396 -71.5488
-8.7507 -68.8377 -71.5357
-8.6033 -68.8344 -71.5002
-8.4556 -68.8305 -71.4546
-8.3086 -68.8281 -71.4329
-8.1629 -68.8278 -71.4484
-8.0173 -68.8281 -71.4722
-7.8711 -68.8271 -71.474
-7.724 -68.8242 -71.4454
-7.5771 -68.8215 -71.4194
-7.4309 -68.8206 -71.4233
-7.2856 -68.8216 -71.4586
-7.1407 -68.8237 -71.5136
-6.9953 -68.8248 -71.551
-6.8489 -68.8234 -71.5468
-6.7018 -68.8203 -71.5139
-6.5547 -68.817 -71.4772
-6.408 -68.8146 -71.4557
-6.2617 -68.8134 -71.4546
-6.1155 -68.8124 -71.4567
-5.9689 -68.8102 -71.4384
-5.822 -68.8071 -71.4062
-5.6755 -68.805 -71.3892
-5.5294 -68.8042 -71.3955
-5.3833 -68.8037 -71.4058
-5.237 -68.8023 -71.4003
-5.0905 -68.8003 -71.3862
-4.9444 -68.7994 -71.3898
-4.7984 -68.7994 -71.4076
-4.6522 -68.7983 -71.4084
-4.5058 -68.7963 -71.3938
-4.3595 -68.7951 -71.3923
-4.2134 -68.7945 -71.4014
-4.0671 -68.7933 -71.3993
-3.9209 -68.792 -71.3962
-3.7747 -68.7912 -71.402
-3.6284 -68.7901 -71.4007
-3.482 -68.7877 -71.3806
-3.3356 -68.7852 -71.3569
-3.1894 -68.7835 -71.3462
-3.0432 -68.7827 -71.3519
-2.897 -68.7823 -71.3635
-2.7508 -68.7816 -71.3699
-2.6046 -68.7806 -71.3721
-2.4584 -68.7793 -71.3677
-2.3121 -68.7775 -71.3558
-2.1659 -68.7759 -71.3475
-2.0197 -68.7746 -71.3442
-1.8735 -68.7733 -71.3411
-1.7273 -68.7719 -71.3354
-1.5811 -68.7703 -71.3264
-1.4349 -68.7683 -71.311
-1.2887 -68.7661 -71.2934
-1.1426 -68.7646 -71.2863
-0.9964 -68.764 -71.2944
-0.8501 -68.7634 -71.3024
-0.7039 -68.762 -71.2968
-0.5578 -68.7602 -71.2837
-0.4117 -68.7587 -71.2775
-0.2654 -68.758 -71.2839
-0.1191 -68.758 -71.3026
0.0273 -68.758 -71.319
0.1734 -68.7561 -71.305
0.3195 -68.7542 -71.2922
0.4656 -68.7528 -71.2855
0.6116 -68.7504 -71.2642
0.7577 -68.749 -71.258
0.9041 -68.7489 -71.2745
1.0507 -68.7492 -71.2977
1.1971 -68.749 -71.3118
1.3435 -68.7483 -71.3176
1.4896 -68.7469 -71.3121
1.6355 -68.7445 -71.2891
1.7812 -68.742 -71.2646
1.9272 -68.7402 -71.2527
2.0733 -68.7388 -71.2469
2.2194 -68.7372 -71.2377
2.3655 -68.7358 -71.2328
2.5119 -68.7353 -71.2414
2.6582 -68.7346 -71.2468
2.8042 -68.7328 -71.2343
2.95 -68.7308 -71.2176
3.0961 -68.7294 -71.2124
3.2425 -68.7288 -71.2203
3.389 -68.7285 -71.2317
3.5355 -68.728 -71.2413
3.6819 -68.7274 -71.2489
3.8282 -68.7264 -71.2497
3.9742 -68.7249 -71.2416
4.1203 -68.7234 -71.2341
4.2664 -68.7221 -71.2288
4.4121 -68.7201 -71.2126
4.5574 -68.7173 -71.1838
4.7029 -68.7149 -71.1595
4.8486 -68.713 -71.1448
4.9942 -68.711 -71.1287
5.1398 -68.7089 -71.1104
5.2858 -68.7076 -71.1061
5.4326 -68.7075 -71.1219
5.5793 -68.7072 -71.1339
5.7252 -68.7057 -71.1266
5.8713 -68.7046 -71.1239
6.018 -68.7042 -71.135
6.1641 -68.703 -71.1323
6.3093 -68.7004 -71.1062
6.4545 -68.698 -71.0826
6.6012 -68.6977 -71.094
6.7487 -68.6984 -71.123
6.8953 -68.6979 -71.1319
7.0408 -68.696 -71.1161
7.1859 -68.6934 -71.09
7.331 -68.6909 -71.065
7.4765 -68.689 -71.0499
7.6231 -68.6885 -71.0582
7.7706 -68.689 -71.0835
7.9173 -68.6887 -71.0942
8.0636 -68.6876 -71.0935
8.2104 -68.6874 -71.106
8.3583 -68.6882 -71.1367
8.506 -68.6889 -71.165
8.6528 -68.6884 -71.174
8.799 -68.6872 -71.1706
8.9454 -68.6863 -71.1724
9.0932 -68.6869 -71.199
9.2406 -68.6871 -71.2179
9.386 -68.685 -71.1995
9.5309 -68.6825 -71.174
9.677 -68.6812 -71.1694
9.8244 -68.6812 -71.1858
9.9717 -68.6812 -71.2017
10.1182 -68.6804 -71.2044
10.2641 -68.6788 -71.1949
10.4093 -68.6766 -71.1746
10.5541 -68.6742 -71.1494
10.6994 -68.6721 -71.1318
10.8458 -68.6712 -71.1326
10.9933 -68.6713 -71.1499
11.1408 -68.6713 -71.1665
11.2877 -68.6707 -71.1739
11.4343 -68.67 -71.1772
11.5808 -68.669 -71.1772
11.727 -68.6678 -71.173
11.8731 -68.6666 -71.1686
12.0198 -68.6659 -71.1729
12.1675 -68.6659 -71.1904
12.3157 -68.6664 -71.2149
12.4636 -68.6666 -71.2348
12.6104 -68.6659 -71.2383
12.7558 -68.664 -71.2233
12.9005 -68.6616 -71.1983
13.0445 -68.6586 -71.1638
13.1885 -68.6557 -71.1301
13.3343 -68.6542 -71.1215
13.4816 -68.6539 -71.1315
13.6299 -68.6543 -71.1549
13.7785 -68.655 -71.1826
13.9267 -68.6553 -71.2041
14.0752 -68.6558 -71.2283
14.2249 -68.6572 -71.2677
14.3745 -68.6585 -71.3055
14.5199 -68.6566 -71.2903
14.6624 -68.6526 -71.2388
14.8056 -68.6492 -71.1969
14.9516 -68.6479 -71.1901
15.0986 -68.6472 -71.1943
15.2456 -68.6466 -71.1998
15.3929 -68.6461 -71.208
15.5406 -68.6459 -71.2203
15.6881 -68.6455 -71.2297
15.8343 -68.6443 -71.225
15.9792 -68.6422 -71.2049
16.1237 -68.6399 -71.1804
16.2694 -68.6383 -71.17
16.4178 -68.6385 -71.1891
16.5675 -68.6396 -71.2224
16.7166 -68.6402 -71.2494
16.8649 -68.6403 -71.2667
17.0127 -68.6401 -71.2781
17.1604 -68.6397 -71.2877
17.3086 -68.6397 -71.303
17.4571 -68.6399 -71.3208
17.6057 -68.6401 -71.3395
17.7543 -68.6402 -71.3579
17.9017 -68.6397 -71.3639
18.0477 -68.6382 -71.3547
18.1944 -68.6372 -71.3531
18.343 -68.6374 -71.371
18.4922 -68.6378 -71.3934
18.641 -68.638 -71.4122
18.7904 -68.6385 -71.4372
18.9405 -68.6395 -71.4679
19.09 -68.64 -71.4918
19.238 -68.6396 -71.5019
19.3854 -68.6389 -71.505
19.5337 -68.6388 -71.5175
19.6836 -68.6395 -71.5441
19.8333 -68.64 -71.5686
19.9812 -68.6396 -71.5765
20.1278 -68.6384 -71.5716
20.2739 -68.6369 -71.5623
20.4203 -68.6356 -71.5552
20.5686 -68.6354 -71.5657
20.7201 -68.6368 -71.6052
20.8732 -68.639 -71.6579
21.0239 -68.64 -71.6896
21.1727 -68.6399 -71.7029
21.3219 -68.64 -71.7195
21.4721 -68.6407 -71.7456
21.6236 -68.6419 -71.7814
21.7755 -68.6433 -71.8204
21.9257 -68.6439 -71.845
22.0739 -68.6434 -71.8515
22.2221 -68.6429 -71.8581
22.3716 -68.643 -71.8752
22.5231 -68.6441 -71.909
22.676 -68.6459 -71.9542
22.8271 -68.6468 -71.9831
22.9763 -68.6467 -71.9972
23.1269 -68.6473 -72.0211
23.2809 -68.6495 -72.0732
-23.5165 -69.6228 -80.0826
-21.3611 -69.2942 -74.946
-21.1728 -69.2668 -74.5193
-20.9938 -69.2452 -74.1866
-20.823 -69.2288 -73.9389
-20.6561 -69.2148 -73.7311
-20.4911 -69.2019 -73.5403
-20.3281 -69.1902 -73.37
-20.1674 -69.18 -73.2229
-20.0083 -69.1706 -73.0906
-19.8503 -69.162 -72.9702
-19.6941 -69.1545 -72.868
-19.5389 -69.1477 -72.7768
-19.3841 -69.141 -72.6879
-19.2301 -69.1348 -72.6068
-19.0774 -69.1295 -72.5405
-18.926 -69.125 -72.4884
-18.7769 -69.1222 -72.4631
-18.6306 -69.1216 -72.4731
-18.485 -69.1215 -72.492
-18.3385 -69.1207 -72.4998
-18.1914 -69.1194 -72.4986
-18.0443 -69.1182 -72.4991
-17.8972 -69.1169 -72.4994
-17.7499 -69.1155 -72.4966
-17.6015 -69.1132 -72.4791
-17.4519 -69.1099 -72.4446
-17.3025 -69.1067 -72.4131
-17.1541 -69.1044 -72.3949
-17.0063 -69.1024 -72.3832
-16.8587 -69.1007 -72.3753
-16.7106 -69.0985 -72.3595
-16.5614 -69.0953 -72.3268
-16.4118 -69.0918 -72.2897
-16.2621 -69.0881 -72.249
-16.1117 -69.0838 -72.1984
-15.9612 -69.0792 -72.1437
-15.8105 -69.0745 -72.0859
-15.66 -69.0698 -72.0293
-15.5104 -69.0659 -71.9856
-15.3613 -69.0624 -71.9482
-15.2116 -69.0583 -71.9011
-15.0616 -69.0539 -71.8476
-14.9115 -69.0493 -71.792
-14.7618 -69.0449 -71.7408
-14.6134 -69.0419 -71.7105
-14.4661 -69.0398 -71.6962
-14.3187 -69.0376 -71.6806
-14.1708 -69.0349 -71.6559
-14.023 -69.0324 -71.6336
-13.8761 -69.0306 -71.6241
-13.7292 -69.0289 -71.6157
-13.5824 -69.0273 -71.6094
-13.4371 -69.0273 -71.6292
-13.2922 -69.0277 -71.6558
-13.1452 -69.0259 -71.6455
-12.9977 -69.0234 -71.6245
-12.8501 -69.0209 -71.6022
-12.7033 -69.0192 -71.5946
-12.5587 -69.0201 -71.6293
-12.4139 -69.0208 -71.66
-12.2674 -69.0195 -71.6578
-12.1206 -69.0179 -71.6505
-11.9742 -69.0167 -71.6508
-11.8278 -69.0155 -71.6508
-11.681 -69.0138 -71.6418
-11.5333 -69.011 -71.6147
-11.3847 -69.0068 -71.5654
-11.2363 -69.0028 -71.5197
-11.0896 -69.0012 -71.5121
-10.9445 -69.0017 -71.5393
-10.7995 -69.0024 -71.5705
-10.6535 -69.0018 -71.5793
-10.5067 -68.9999 -71.5676
-10.3601 -68.9983 -71.5608
-10.2138 -68.9972 -71.5628
-10.0669 -68.9952 -71.5484
-9.9191 -68.9917 -71.5093
-9.7717 -68.9887 -71.4799
-9.6257 -68.988 -71.4869
-9.4793 -68.9867 -71.4854
-9.3328 -68.9851 -71.4774
-9.1874 -68.9855 -71.5042
-9.043 -68.9877 -71.558
-8.8971 -68.9873 -71.5716
-8.7497 -68.9843 -71.5399
-8.6018 -68.9801 -71.4897
-8.454 -68.976 -71.441
-8.3073 -68.9739 -71.4266
-8.1616 -68.9739 -71.4447
-8.0158 -68.9737 -71.4605
-7.8695 -68.9725 -71.4602
-7.7228 -68.9703 -71.4416
-7.576 -68.9679 -71.4222
-7.4299 -68.9672 -71.4292
-7.2848 -68.9686 -71.4711
-7.14 -68.9711 -71.5306
-6.9947 -68.9724 -71.5706
-6.8482 -68.9709 -71.565
-6.701 -68.9675 -71.5278
-6.5538 -68.964 -71.4884
-6.407 -68.9615 -71.4658
-6.2606 -68.9599 -71.4582
-6.1142 -68.9582 -71.4493
-5.9674 -68.9556 -71.425
-5.8206 -68.9527 -71.3957
-5.6742 -68.951 -71.3857
-5.5283 -68.9508 -71.4008
-5.3823 -68.9507 -71.418
-5.2361 -68.9497 -71.4192
-5.0897 -68.948 -71.41
-4.9435 -68.9467 -71.4072
-4.7973 -68.9458 -71.4101
-4.6509 -68.9439 -71.3986
-4.5045 -68.9418 -71.3819
-4.3583 -68.941 -71.3864
-4.2123 -68.9411 -71.4073
-4.0662 -68.9409 -71.4218
-3.92 -68.9399 -71.4239
-3.7737 -68.9388 -71.4232
-3.6273 -68.9368 -71.4094
-3.4809 -68.934 -71.3814
-3.3345 -68.9314 -71.3563
-3.1882 -68.9297 -71.3465
-3.042 -68.9287 -71.3478
-2.8958 -68.9279 -71.353
-2.7497 -68.9274 -71.3631
-2.6035 -68.9269 -71.3731
-2.4572 -68.9258 -71.373
-2.311 -68.924 -71.361
-2.1647 -68.9221 -71.3469
-2.0185 -68.9206 -71.3398
-1.8723 -68.9196 -71.3427
-1.7261 -68.9188 -71.3465
-1.5799 -68.9171 -71.3373
-1.4337 -68.9151 -71.3207
-1.2875 -68.9131 -71.3066
-1.1413 -68.9118 -71.3019
-0.9951 -68.9108 -71.304
-0.8489 -68.9096 -71.3021
-0.7028 -68.9081 -71.2949
-0.5566 -68.9068 -71.2919
-0.4104 -68.9058 -71.2919
-0.2642 -68.9048 -71.2937
-0.1179 -68.9044 -71.3052
0.0284 -68.9039 -71.3152
0.1744 -68.9016 -71.2932
0.3206 -68.9 -71.2853
0.4668 -68.8992 -71.2892
0.6129 -68.8975 -71.2788
0.7591 -68.8964 -71.2784
0.9056 -68.8965 -71.2979
1.0521 -68.8965 -71.3148
1.1985 -68.896 -71.3242
1.3448 -68.8952 -71.3294
1.4908 -68.8933 -71.3158
1.6367 -68.8909 -71.2924
1.7826 -68.8887 -71.2744
1.9287 -68.8872 -71.266
2.0747 -68.8855 -71.2565
2.2206 -68.8834 -71.2382
2.3666 -68.8818 -71.2293
2.513 -68.8815 -71.2408
2.6595 -68.8811 -71.2516
2.8055 -68.8794 -71.242
2.9512 -68.8771 -71.2208
3.0972 -68.8756 -71.2122
3.2437 -68.875 -71.2207
3.3902 -68.8748 -71.234
3.5368 -68.8744 -71.2452
3.6832 -68.8738 -71.2514
3.8293 -68.8723 -71.2449
3.9751 -68.8705 -71.232
4.1212 -68.8691 -71.2258
4.2674 -68.8679 -71.2227
4.4129 -68.8655 -71.2007
4.5579 -68.8622 -71.162
4.7031 -68.8593 -71.1315
4.8487 -68.8572 -71.1138
4.9944 -68.8554 -71.0996
5.1403 -68.8538 -71.0908
5.2867 -68.8531 -71.0956
5.4336 -68.8533 -71.1165
5.5805 -68.8535 -71.1361
5.7267 -68.8523 -71.134
5.8724 -68.8505 -71.1215
6.0184 -68.8491 -71.1148
6.1643 -68.8476 -71.107
6.3098 -68.8456 -71.0892
6.4556 -68.844 -71.0792
6.6024 -68.8439 -71.0948
6.75 -68.8448 -71.1272
6.8971 -68.8449 -71.1461
7.0428 -68.8432 -71.1336
7.188 -68.8407 -71.1093
7.3333 -68.8385 -71.0894
7.4791 -68.837 -71.0806
7.6256 -68.8363 -71.0853
7.7721 -68.8356 -71.0904
7.9178 -68.834 -71.0801
8.0636 -68.8324 -71.071
8.2104 -68.8321 -71.0821
8.3582 -68.8329 -71.1127
8.5065 -68.8343 -71.1514
8.6544 -68.835 -71.181
8.8013 -68.8347 -71.1924
8.9483 -68.8344 -71.2034
9.0957 -68.8346 -71.2234
9.2424 -68.834 -71.2291
9.3877 -68.8318 -71.2089
9.5327 -68.8293 -71.1836
9.6789 -68.8281 -71.1807
9.8266 -68.8285 -71.2032
9.9739 -68.8285 -71.2197
10.1202 -68.8274 -71.2173
10.2658 -68.8255 -71.2029
10.4109 -68.8233 -71.1818
10.5559 -68.821 -71.1592
10.7012 -68.819 -71.1421
10.8474 -68.8178 -71.1385
10.9947 -68.8177 -71.1527
11.1423 -68.8178 -71.1706
11.2893 -68.8174 -71.1804
11.436 -68.8167 -71.1848
11.5824 -68.8157 -71.1838
11.7283 -68.8142 -71.1752
11.874 -68.8125 -71.1636
12.0201 -68.8112 -71.1584
12.1675 -68.8111 -71.1722
12.3156 -68.8116 -71.1968
12.4634 -68.8118 -71.2153
12.61 -68.8109 -71.2159
12.7556 -68.8091 -71.2028
12.9009 -68.8072 -71.1869
13.0455 -68.8047 -71.1603
13.1889 -68.8012 -71.1185
13.3338 -68.7991 -71.0984
13.4813 -68.7989 -71.1115
13.6299 -68.7996 -71.1395
13.7787 -68.8005 -71.1698
13.9267 -68.8007 -71.1885
14.0747 -68.8008 -71.2066
14.2236 -68.8017 -71.2364
14.3717 -68.8018 -71.2545
14.5166 -68.7996 -71.2334
14.6591 -68.7957 -71.1836
14.8031 -68.7928 -71.1516
14.9499 -68.7921 -71.155
15.0971 -68.7916 -71.1621
15.2444 -68.7912 -71.1705
15.3921 -68.791 -71.1834
15.5399 -68.7909 -71.1981
15.6876 -68.7907 -71.2098
15.8341 -68.7897 -71.209
15.9794 -68.7879 -71.1932
16.1245 -68.7859 -71.1751
16.2709 -68.7848 -71.1727
16.4192 -68.785 -71.1912
16.5685 -68.7858 -71.22
16.7175 -68.7864 -71.2457
16.8657 -68.7865 -71.2621
17.0129 -68.7858 -71.2665
17.1596 -68.7849 -71.2666
17.3078 -68.7849 -71.2815
17.4573 -68.7857 -71.3103
17.6068 -68.7865 -71.3385
17.7559 -68.787 -71.3623
17.9038 -68.7867 -71.3731
18.0507 -68.7858 -71.3729
18.1982 -68.7853 -71.3791
18.3472 -68.7857 -71.4008
18.4966 -68.7862 -71.4257
18.6454 -68.7865 -71.4445
18.7944 -68.7867 -71.4644
18.9442 -68.7875 -71.4921
19.094 -68.7882 -71.5189
19.2422 -68.788 -71.5307
19.3891 -68.787 -71.5293
19.5368 -68.7865 -71.535
19.6868 -68.7872 -71.5629
19.8371 -68.7881 -71.5929
19.9853 -68.7879 -71.6033
20.1319 -68.7867 -71.598
20.2775 -68.7849 -71.5838
20.4232 -68.7833 -71.5709
20.5718 -68.7832 -71.584
20.7244 -68.7852 -71.6333
20.8759 -68.7866 -71.6714
21.0256 -68.787 -71.6933
21.1755 -68.7875 -71.7165
21.3256 -68.7881 -71.7412
21.475 -68.7884 -71.7601
21.6249 -68.7888 -71.7818
21.7761 -68.7899 -71.815
21.9266 -68.7906 -71.8421
22.0751 -68.7903 -71.8512
22.2236 -68.7899 -71.86
22.3734 -68.7903 -71.8804
22.5243 -68.7911 -71.9089
22.6752 -68.7919 -71.9371
22.8256 -68.7924 -71.9604
22.9765 -68.7933 -71.9884
23.1286 -68.7946 -72.0252
23.2815 -68.7963 -72.0685
-23.6811 -69.7846 -80.2123
-23.4918 -69.7607 -79.8482
-21.5335 -69.4606 -75.2095
-21.345 -69.4331 -74.7854
-21.1603 -69.4077 -74.396
-20.9844 -69.3878 -74.0954
-20.8158 -69.3727 -73.8722
-20.65 -69.3593 -73.676
-20.4857 -69.3467 -73.4928
-20.3237 -69.3356 -73.3334
-20.1643 -69.3261 -73.1997
-20.0059 -69.3172 -73.0768
-19.8482 -69.3087 -72.9589
-19.6917 -69.3008 -72.853
-19.5363 -69.2938 -72.759
-19.3815 -69.287 -72.6695
-19.2274 -69.2807 -72.5873
-19.0744 -69.2751 -72.5175
-18.9227 -69.2704 -72.4615
-18.7727 -69.2669 -72.4254
-18.6251 -69.2653 -72.4195
-18.4795 -69.2651 -72.4374
-18.3345 -69.2654 -72.4625
-18.189 -69.2654 -72.4825
-18.0429 -69.2649 -72.4951
-17.8964 -69.2642 -72.5028
-17.749 -69.2627 -72.4991
-17.6006 -69.2604 -72.4822
-17.4507 -69.2568 -72.4435
-17.3002 -69.2527 -72.3969
-17.1512 -69.2497 -72.3697
-17.0034 -69.2479 -72.3594
-16.8559 -69.2462 -72.352
-16.7083 -69.2444 -72.3429
-16.5604 -69.2423 -72.3296
-16.412 -69.2398 -72.3082
-16.2628 -69.2365 -72.2754
-16.1123 -69.2321 -72.2233
-15.9612 -69.227 -72.16
-15.8108 -69.2225 -72.1072
-15.6613 -69.2188 -72.0666
-15.5123 -69.2154 -72.0313
-15.363 -69.2117 -71.9915
-15.2125 -69.2068 -71.9321
-15.0616 -69.2015 -71.8651
-14.9111 -69.1965 -71.8043
-14.7614 -69.1922 -71.7531
-14.6127 -69.1888 -71.7178
-14.4651 -69.1864 -71.6988
-14.3177 -69.1843 -71.6837
-14.1699 -69.1816 -71.6607
-14.0218 -69.1786 -71.6312
-13.8739 -69.1759 -71.6067
-13.7266 -69.1738 -71.5912
-13.5803 -69.1726 -71.5927
-13.436 -69.1737 -71.6291
-13.2911 -69.1742 -71.6574
-13.1437 -69.1719 -71.639
-12.9957 -69.1688 -71.6084
-12.8477 -69.1658 -71.5781
-12.7012 -69.1645 -71.5765
-12.5573 -69.1661 -71.6226
-12.4121 -69.1664 -71.6473
-12.2652 -69.1647 -71.6381
-12.1181 -69.1626 -71.6238
-11.9715 -69.1611 -71.6178
-11.8249 -69.1597 -71.6148
-11.678 -69.1578 -71.6039
-11.5303 -69.1548 -71.5736
-11.382 -69.151 -71.5313
-11.2341 -69.1477 -71.4969
-11.0873 -69.1459 -71.4861
-10.942 -69.146 -71.5075
-10.7974 -69.1474 -71.5485
-10.6523 -69.148 -71.5778
-10.5052 -69.1457 -71.5584
-10.3579 -69.143 -71.5347
-10.2115 -69.1418 -71.5341
-10.0652 -69.1405 -71.5323
-9.9179 -69.1378 -71.5072
-9.7706 -69.1351 -71.4818
-9.624 -69.1335 -71.4738
-9.4769 -69.1308 -71.4495
-9.3307 -69.1297 -71.4504
-9.1862 -69.1316 -71.5003
-9.0422 -69.1347 -71.5686
-8.8965 -69.1347 -71.588
-8.7485 -69.1304 -71.5376
-8.6001 -69.1253 -71.4733
-8.4525 -69.1215 -71.4298
-8.3064 -69.1206 -71.4337
-8.161 -69.1214 -71.4646
-8.015 -69.1206 -71.4713
-7.8683 -69.1186 -71.4572
-7.7216 -69.1165 -71.4408
-7.575 -69.1146 -71.4285
-7.4291 -69.1142 -71.4407
-7.2839 -69.1155 -71.4807
-7.1388 -69.1174 -71.5304
-6.9935 -69.1186 -71.5684
-6.8471 -69.1173 -71.5657
-6.6999 -69.114 -71.5308
-6.5529 -69.111 -71.4993
-6.4063 -69.1088 -71.4831
-6.2597 -69.107 -71.4721
-6.113 -69.1046 -71.4506
-5.9662 -69.1015 -71.4185
-5.8194 -69.0987 -71.3911
-5.6731 -69.0974 -71.3887
-5.5273 -69.0975 -71.4077
-5.3813 -69.0975 -71.4273
-5.2352 -69.0966 -71.4309
-5.0888 -69.095 -71.4228
-4.9424 -69.0933 -71.4124
-4.7959 -69.0913 -71.3977
-4.6495 -69.0891 -71.3802
-4.5032 -69.0874 -71.371
-4.3571 -69.0869 -71.3808
-4.2111 -69.0873 -71.4063
-4.0651 -69.0879 -71.4333
-3.919 -69.0875 -71.4453
-3.7726 -69.0855 -71.4306
-3.6261 -69.0826 -71.4008
-3.4796 -69.0796 -71.3703
-3.3333 -69.0775 -71.3539
-3.1871 -69.0766 -71.3573
-3.0409 -69.0758 -71.3629
-2.8947 -69.0748 -71.3642
-2.7485 -69.0741 -71.3703
-2.6023 -69.0735 -71.3791
-2.4561 -69.0725 -71.3803
-2.3098 -69.0709 -71.3714
-2.1636 -69.0687 -71.3537
-2.0173 -69.0668 -71.3402
-1.8711 -69.066 -71.3448
-1.7249 -69.0654 -71.3529
-1.5787 -69.0636 -71.341
-1.4325 -69.0612 -71.32
-1.2864 -69.0595 -71.3088
-1.1402 -69.0584 -71.309
-0.9939 -69.0575 -71.3117
-0.8478 -69.056 -71.3052
-0.7016 -69.0544 -71.296
-0.5554 -69.0532 -71.2939
-0.4092 -69.0522 -71.2955
-0.263 -69.051 -71.2933
-0.1168 -69.0499 -71.2933
0.0294 -69.0489 -71.2938
0.1755 -69.0474 -71.2871
0.3218 -69.0463 -71.2876
0.4681 -69.046 -71.2991
0.6144 -69.0452 -71.3044
0.7606 -69.0441 -71.3036
0.9069 -69.0431 -71.3042
1.0532 -69.0423 -71.3091
1.1997 -69.0424 -71.3275
1.3463 -69.0426 -71.3482
1.4922 -69.0402 -71.3258
1.638 -69.0375 -71.2987
1.784 -69.0358 -71.2879
1.9302 -69.0345 -71.2837
2.0762 -69.0326 -71.2706
2.2219 -69.0302 -71.2475
2.3678 -69.0282 -71.2329
2.5142 -69.0275 -71.2387
2.6606 -69.0271 -71.2486
2.8067 -69.0256 -71.2411
2.9525 -69.0235 -71.224
3.0986 -69.0221 -71.218
3.2449 -69.0213 -71.2228
3.3911 -69.0203 -71.223
3.5376 -69.0197 -71.2306
3.6841 -69.0194 -71.2427
3.8303 -69.0182 -71.2395
3.9762 -69.0165 -71.2282
4.1223 -69.0152 -71.224
4.2685 -69.014 -71.2213
4.4139 -69.0113 -71.1944
4.5589 -69.0079 -71.1553
4.7042 -69.0053 -71.1288
4.8498 -69.0031 -71.1096
4.9953 -69.0009 -71.0903
5.1411 -68.9992 -71.0784
5.2874 -68.9985 -71.0842
5.4346 -68.9991 -71.1108
5.5819 -68.9998 -71.1401
5.7282 -68.999 -71.143
5.8735 -68.9966 -71.1203
6.0187 -68.994 -71.0941
6.1645 -68.9923 -71.082
6.3108 -68.9915 -71.0855
6.4574 -68.991 -71.0941
6.6041 -68.9908 -71.1076
6.7514 -68.9913 -71.1323
6.8986 -68.9916 -71.1545
7.0448 -68.9904 -71.1511
7.1902 -68.9882 -71.1316
7.3357 -68.9863 -71.1165
7.4817 -68.9849 -71.1103
7.6278 -68.9837 -71.107
7.7733 -68.9818 -71.0912
7.9183 -68.9791 -71.0642
8.0637 -68.9771 -71.0479
8.2103 -68.9767 -71.0564
8.3582 -68.9776 -71.0887
8.507 -68.9796 -71.1368
8.6556 -68.9813 -71.1809
8.8033 -68.9819 -71.2072
8.9507 -68.9821 -71.2265
9.0978 -68.9819 -71.2406
9.2437 -68.9804 -71.2315
9.3886 -68.9777 -71.2032
9.5339 -68.9755 -71.1842
9.6809 -68.9752 -71.1948
9.8286 -68.9756 -71.2177
9.9753 -68.975 -71.2228
10.121 -68.9732 -71.2104
10.2664 -68.9712 -71.1935
10.4117 -68.9691 -71.1751
10.557 -68.9671 -71.1576
10.7026 -68.9653 -71.1445
10.8487 -68.9641 -71.1405
10.9958 -68.9638 -71.1506
11.1433 -68.9639 -71.1679
11.2901 -68.9633 -71.1742
11.4366 -68.9623 -71.1745
11.5831 -68.9614 -71.1754
11.7291 -68.9601 -71.17
11.8747 -68.9584 -71.1573
12.0206 -68.957 -71.1494
12.1678 -68.9566 -71.1591
12.3156 -68.9568 -71.1784
12.4628 -68.9565 -71.1886
12.609 -68.9553 -71.1853
12.7548 -68.9538 -71.176
12.9009 -68.9525 -71.1696
13.0463 -68.9506 -71.1554
13.1903 -68.9477 -71.122
13.335 -68.9452 -71.0974
13.482 -68.9447 -71.1047
13.6304 -68.9454 -71.1307
13.7786 -68.9458 -71.153
13.9259 -68.9454 -71.1621
14.0732 -68.9451 -71.1723
14.2213 -68.9453 -71.1918
14.3685 -68.9448 -71.1996
14.5128 -68.9422 -71.1712
14.6558 -68.9386 -71.1273
14.8004 -68.9362 -71.1039
14.947 -68.9354 -71.1051
15.0945 -68.9352 -71.1169
15.2424 -68.9352 -71.1329
15.3907 -68.9355 -71.1525
15.539 -68.9358 -71.1731
15.6869 -68.9358 -71.1882
15.8335 -68.9348 -71.1879
15.9791 -68.9332 -71.1756
16.1251 -68.9318 -71.169
16.2726 -68.9315 -71.1782
16.4207 -68.9315 -71.194
16.5693 -68.9319 -71.2163
16.7187 -68.9328 -71.2457
16.867 -68.9329 -71.2626
17.0135 -68.9319 -71.2605
17.1598 -68.9307 -71.2557
17.3082 -68.9308 -71.2724
17.4584 -68.9321 -71.3089
17.6081 -68.933 -71.3398
17.7571 -68.9335 -71.362
17.9052 -68.9333 -71.3747
18.0527 -68.9328 -71.3808
18.2007 -68.9326 -71.3926
18.3499 -68.9331 -71.4153
18.4994 -68.9337 -71.4411
18.6481 -68.9339 -71.4586
18.7966 -68.9339 -71.4738
18.9461 -68.9345 -71.499
19.0964 -68.9355 -71.5304
19.2456 -68.9359 -71.5513
