2.6843 -87.3389 4.819
2.788 -87.338 4.8167
2.8913 -87.3384 4.8051
2.9943 -87.3399 4.7848
3.0972 -87.3418 4.7612
3.2001 -87.3439 4.7368
3.3029 -87.3462 4.7106
3.4059 -87.3482 4.6869
3.5092 -87.3486 4.6747
3.6129 -87.348 4.6704
3.7163 -87.3483 4.6595
3.8196 -87.349 4.6454
3.9233 -87.3483 4.6418
4.0273 -87.3464 4.6468
4.1311 -87.3451 4.6473
4.2345 -87.3456 4.6347
4.3377 -87.3473 4.6135
4.4409 -87.3488 4.5936
4.5442 -87.3499 4.5766
4.6476 -87.3508 4.5608
4.751 -87.3513 4.5485
4.8545 -87.3516 4.5369
4.9578 -87.3531 4.5173
5.0607 -87.3563 4.4845
5.1634 -87.3607 4.4425
5.266 -87.3656 4.3976
5.3688 -87.37 4.3554
5.472 -87.3725 4.3283
5.5758 -87.372 4.3231
5.6797 -87.3708 4.323
5.7834 -87.3711 4.3121
5.887 -87.3714 4.3014
5.9911 -87.3697 4.3051
6.0951 -87.3681 4.3086
6.1986 -87.3694 4.2901
6.3016 -87.3733 4.2521
6.4048 -87.3767 4.2179
6.5085 -87.3771 4.2062
6.6126 -87.3752 4.212
6.7168 -87.3728 4.221
6.8208 -87.3717 4.2206
6.9246 -87.3717 4.2119
7.0284 -87.3715 4.2047
7.1324 -87.3704 4.2042
7.2366 -87.3679 4.2149
7.341 -87.3639 4.2355
7.4453 -87.3604 4.2536
7.5494 -87.3581 4.2619
7.6535 -87.3566 4.2649
7.7574 -87.3556 4.2638
7.8612 -87.356 4.2517
7.9647 -87.3582 4.2272
8.0681 -87.3612 4.1958
8.1713 -87.3664 4.1481
8.2741 -87.3753 4.0733
8.3771 -87.3825 4.0103
8.4808 -87.3851 3.9826
8.5847 -87.3856 3.9704
-13.5397 -87.8284 3.436
-13.4062 -87.7875 3.7292
-13.2808 -87.7573 3.9428
-13.1681 -87.7442 4.03
-13.0572 -87.7336 4.0982
-12.947 -87.7239 4.1603
-12.8376 -87.7152 4.2146
-12.7295 -87.7082 4.2563
-12.6221 -87.7023 4.2901
-12.5149 -87.6965 4.3229
-12.4078 -87.6908 4.355
-12.3007 -87.6851 4.3873
-12.1939 -87.6798 4.4166
-12.0881 -87.6759 4.4351
-11.9833 -87.6734 4.4441
-11.8785 -87.6709 4.4526
-11.7732 -87.6677 4.4661
-11.6678 -87.6643 4.4813
-11.5628 -87.6615 4.4923
-11.4577 -87.6585 4.5046
-11.3517 -87.6541 4.5269
-11.2456 -87.6496 4.5501
-11.1412 -87.6476 4.5554
-11.0381 -87.6475 4.5463
-10.9347 -87.647 4.5399
-10.8304 -87.6451 4.5436
-10.7252 -87.6419 4.5577
-10.6193 -87.6375 4.5804
-10.513 -87.6326 4.6073
-10.4068 -87.6278 4.6327
-10.3011 -87.6237 4.6529
-10.1962 -87.6207 4.6652
-10.0921 -87.6192 4.6668
-9.9888 -87.6188 4.6602
-9.8853 -87.6179 4.6564
-9.7809 -87.6159 4.6614
-9.676 -87.613 4.6734
-9.571 -87.6098 4.6871
-9.4668 -87.608 4.6909
-9.3635 -87.6075 4.6843
-9.2595 -87.6061 4.6852
-9.1538 -87.6018 4.7074
-9.047 -87.5956 4.7434
-8.9404 -87.5899 4.7758
-8.8356 -87.5869 4.7886
-8.7324 -87.5866 4.7807
-8.6297 -87.5872 4.767
-8.5266 -87.5872 4.7571
-8.4233 -87.5867 4.7505
-8.3199 -87.5861 4.7458
-8.2164 -87.5854 4.7406
-8.1135 -87.5857 4.7288
-8.0114 -87.5873 4.7071
-7.9098 -87.5899 4.6781
-7.8083 -87.5927 4.6478
-7.7066 -87.5951 4.6201
-7.6049 -87.5977 4.5912
-7.5037 -87.601 4.5567
-7.4021 -87.6037 4.5271
-7.2988 -87.6035 4.5188
-7.194 -87.6007 4.5297
-7.0886 -87.5968 4.5495
-6.9831 -87.5926 4.5706
-6.8781 -87.5893 4.5859
-6.7735 -87.5867 4.5953
-6.6689 -87.5841 4.605
-6.5641 -87.581 4.6182
-6.4588 -87.5771 4.638
-6.3531 -87.5723 4.6636
-6.2478 -87.5684 4.683
-6.1432 -87.5658 4.6933
-6.0389 -87.5635 4.7003
-5.9348 -87.5618 4.7037
-5.8312 -87.5608 4.7013
-5.7277 -87.5602 4.696
-5.6244 -87.56 4.6885
-5.5214 -87.5604 4.6756
-5.4185 -87.5608 4.6628
-5.3147 -87.5596 4.6621
-5.2098 -87.5564 4.6768
-5.1046 -87.5522 4.6981
-4.9994 -87.5483 4.7178
-4.8943 -87.5443 4.7377
-4.7887 -87.5396 4.7637
-4.6832 -87.5347 4.7905
-4.5783 -87.5313 4.806
-4.474 -87.5289 4.8143
-4.3696 -87.5264 4.824
-4.2653 -87.5239 4.8329
-4.1611 -87.5217 4.8395
-4.0568 -87.5194 4.8475
-3.9523 -87.5166 4.8589
-3.848 -87.5141 4.8681
-3.7442 -87.5128 4.8685
-3.6406 -87.5118 4.8661
-3.5365 -87.5098 4.8714
-3.4321 -87.5071 4.8827
-3.3278 -87.5045 4.8921
-3.2238 -87.5027 4.8963
-3.1198 -87.5009 4.9008
-3.0154 -87.4982 4.9114
-2.9112 -87.4957 4.9202
-2.8082 -87.4961 4.9079
-2.7071 -87.501 4.8623
-2.6069 -87.5079 4.8016
-2.5063 -87.514 4.7465
-2.4048 -87.5182 4.7063
-2.3021 -87.5196 4.6868
-2.1985 -87.5186 4.6843
-2.0946 -87.5173 4.6851
-1.9908 -87.5161 4.6847
-1.8869 -87.5147 4.6856
-1.7832 -87.5136 4.6847
-1.6796 -87.5128 4.681
-1.5757 -87.5114 4.6827
-1.4714 -87.509 4.691
-1.3674 -87.5071 4.6956
-1.2638 -87.5064 4.6916
-1.1601 -87.5056 4.6888
-1.0559 -87.5034 4.696
-0.9514 -87.5002 4.7104
-0.8467 -87.4966 4.7282
-0.742 -87.4931 4.7446
-0.6378 -87.4907 4.7532
-0.534 -87.4894 4.754
-0.4303 -87.4883 4.753
-0.3265 -87.4872 4.7519
-0.223 -87.4866 4.747
-0.1197 -87.4867 4.7375
-0.0163 -87.4864 4.7302
0.0877 -87.4846 4.7346
0.1921 -87.4816 4.7477
0.2962 -87.4796 4.7539
0.3993 -87.4803 4.7395
0.5017 -87.483 4.7105
0.6043 -87.4852 4.6843
0.7075 -87.4858 4.6708
0.8114 -87.4844 4.6726
0.9161 -87.4805 4.6926
1.0214 -87.4748 4.7254
1.1267 -87.4689 4.7609
1.2319 -87.4632 4.7939
1.3368 -87.4585 4.8201
1.4412 -87.4553 4.835
1.5451 -87.4534 4.8403
1.6488 -87.4522 4.8396
1.7524 -87.4517 4.835
1.8563 -87.4498 4.84
1.9609 -87.4457 4.8612
2.0653 -87.4423 4.8779
2.1688 -87.4418 4.8729
2.2718 -87.4432 4.8529
2.3747 -87.4449 4.8318
2.4779 -87.4454 4.8187
2.5815 -87.4449 4.8139
2.6851 -87.444 4.8114
2.7887 -87.4435 4.8064
2.892 -87.4438 4.7949
2.9951 -87.4451 4.7763
3.0981 -87.4466 4.7564
3.2012 -87.448 4.7366
3.3041 -87.4501 4.712
3.4069 -87.4525 4.6853
3.5101 -87.4537 4.6675
3.6137 -87.4534 4.6609
3.7173 -87.453 4.6549
3.8207 -87.4532 4.645
3.9244 -87.4524 4.6422
4.0284 -87.4504 4.6479
4.1322 -87.4492 4.6478
4.2355 -87.4502 4.6319
4.3387 -87.4519 4.61
4.442 -87.453 4.5932
4.5453 -87.4541 4.5763
4.6485 -87.4558 4.5544
4.7518 -87.4571 4.536
4.8552 -87.4576 4.5237
4.9587 -87.4584 4.509
5.0618 -87.4605 4.4848
5.1648 -87.4635 4.453
5.2678 -87.4669 4.4196
5.3708 -87.4699 4.3882
5.4741 -87.4717 4.3656
5.5778 -87.4719 4.356
5.6815 -87.4716 4.3495
5.7851 -87.4725 4.3341
5.8885 -87.4737 4.3161
5.9922 -87.4741 4.3042
6.0957 -87.475 4.2889
6.199 -87.4779 4.2589
6.3021 -87.4816 4.2227
6.4055 -87.4836 4.1989
6.5094 -87.4829 4.195
6.6136 -87.4806 4.2039
6.7178 -87.4778 4.2158
6.8219 -87.4758 4.2221
6.9258 -87.4752 4.2185
7.0297 -87.4749 4.2119
7.1337 -87.4736 4.213
7.238 -87.4706 4.2263
7.3423 -87.467 4.2449
7.4465 -87.4641 4.2583
7.5506 -87.462 4.2651
7.6547 -87.4604 4.2687
7.7586 -87.4595 4.2668
7.8623 -87.4604 4.2513
7.9657 -87.4632 4.2222
8.0691 -87.4667 4.1873
8.1723 -87.4717 4.1414
8.2753 -87.4788 4.0795
8.3786 -87.4847 4.0273
8.4822 -87.4873 3.9991
8.586 -87.4884 3.9823
8.6899 -87.4893 3.9674
8.7938 -87.4898 3.955
-13.6431 -87.9343 3.4365
-13.522 -87.9103 3.6038
-13.399 -87.8835 3.7919
-13.2802 -87.8622 3.9396
-13.1665 -87.8478 4.0358
-13.0555 -87.8369 4.1059
-12.9456 -87.8277 4.1643
-12.8368 -87.8197 4.2131
-12.7292 -87.8135 4.2491
-12.6224 -87.8084 4.2767
-12.5158 -87.8034 4.3037
-12.4088 -87.7979 4.334
-12.3016 -87.792 4.3679
-12.1944 -87.7861 4.401
-12.0881 -87.7816 4.4249
-11.9832 -87.7788 4.435
-11.8788 -87.777 4.4388
-11.774 -87.7745 4.4468
-11.6689 -87.7715 4.4591
-11.564 -87.7688 4.4689
-11.4591 -87.7661 4.4794
-11.3531 -87.7618 4.5011
-11.2467 -87.7569 4.5277
-11.1415 -87.7538 4.5408
-11.0378 -87.7528 4.5382
-10.9342 -87.7518 4.5351
-10.8297 -87.7497 4.5408
-10.7243 -87.7462 4.5566
-10.6183 -87.7417 4.58
-10.5121 -87.7369 4.6057
-10.4062 -87.7325 4.6285
-10.3006 -87.7285 4.648
-10.1954 -87.7253 4.6621
-10.0914 -87.7238 4.6636
-9.9885 -87.7239 4.6529
-9.8854 -87.7238 4.6433
-9.7812 -87.7221 4.6466
-9.6758 -87.7183 4.6647
-9.5701 -87.7141 4.6862
-9.466 -87.7124 4.6884
-9.3637 -87.7136 4.6698
-9.2604 -87.7132 4.6633
-9.1545 -87.7086 4.6873
-9.0474 -87.702 4.7262
-8.9409 -87.6964 4.7583
-8.8361 -87.6935 4.7697
-8.7326 -87.6928 4.7651
-8.6295 -87.6927 4.7563
-8.5265 -87.6927 4.7465
-8.4233 -87.6926 4.7378
-8.3198 -87.6918 4.7336
-8.2163 -87.6909 4.7302
-8.1133 -87.6912 4.7185
-8.0115 -87.6933 4.6931
-7.9103 -87.6966 4.6594
-7.809 -87.6997 4.6268
-7.7075 -87.7026 4.5956
-7.6063 -87.706 4.5604
-7.5053 -87.7098 4.5229
-7.4033 -87.7118 4.4982
-7.2993 -87.7105 4.4981
-7.1941 -87.7069 4.5153
-7.0884 -87.7024 4.5386
-6.983 -87.6983 4.5593
-6.878 -87.6951 4.5737
-6.7733 -87.6923 4.5847
-6.6686 -87.6896 4.5951
-6.5641 -87.687 4.6043
-6.4593 -87.684 4.6175
-6.3536 -87.6794 4.6422
-6.2479 -87.6745 4.6682
-6.1428 -87.6711 4.6844
-6.0382 -87.6682 4.6959
-5.9337 -87.6656 4.7055
-5.8296 -87.664 4.7083
-5.7263 -87.6637 4.7011
-5.6236 -87.6646 4.6847
-5.5211 -87.6659 4.6656
-5.4181 -87.6663 4.6531
-5.3142 -87.6648 4.6543
-5.2094 -87.6617 4.6678
-5.1044 -87.6581 4.6855
-4.9995 -87.6546 4.7018
-4.8944 -87.6508 4.7207
-4.7887 -87.6457 4.7485
-4.6828 -87.6402 4.7799
-4.5775 -87.6358 4.8033
-4.4728 -87.6326 4.8176
-4.3684 -87.6301 4.8267
-4.2642 -87.6279 4.8338
-4.1598 -87.6253 4.8433
-4.0552 -87.6223 4.8558
-3.9507 -87.6193 4.8689
-3.8463 -87.6168 4.878
-3.7427 -87.6158 4.876
-3.6394 -87.6155 4.8686
-3.5356 -87.6141 4.8701
-3.4313 -87.6117 4.8785
-3.3274 -87.6101 4.881
-3.224 -87.6095 4.876
-3.1201 -87.608 4.8781
-3.0156 -87.605 4.8905
-2.9117 -87.6033 4.8936
-2.8098 -87.6062 4.8631
-2.7095 -87.6129 4.8044
-2.609 -87.6192 4.748
-2.5073 -87.6228 4.7117
-2.4048 -87.6246 4.6888
-2.3016 -87.6249 4.6781
-2.1977 -87.6234 4.6799
-2.0935 -87.6212 4.6862
-1.9894 -87.6193 4.6912
-1.8854 -87.6177 4.6939
-1.7818 -87.6169 4.6908
-1.6785 -87.617 4.6811
-1.5751 -87.6166 4.6741
-1.4711 -87.615 4.6773
-1.3669 -87.6129 4.6837
-1.2629 -87.6111 4.6879
-1.1586 -87.6086 4.6972
-1.054 -87.6052 4.7127
-0.9496 -87.6023 4.7251
-0.8453 -87.6 4.7332
-0.7412 -87.5978 4.7406
-0.6371 -87.5958 4.7459
-0.5332 -87.5943 4.7482
-0.4294 -87.5929 4.7493
-0.3257 -87.5919 4.7474
-0.2224 -87.5919 4.7383
-0.1194 -87.593 4.7214
-0.0164 -87.5938 4.7061
0.0875 -87.5924 4.7075
0.1921 -87.589 4.7237
0.2965 -87.5859 4.7373
0.4001 -87.5851 4.7341
0.5031 -87.5864 4.7158
0.606 -87.5876 4.6973
0.7095 -87.5874 4.6899
0.8136 -87.5852 4.697
0.9184 -87.581 4.7191
1.0236 -87.5754 4.7517
1.129 -87.5693 4.7886
1.2343 -87.5632 4.8243
1.3392 -87.5583 4.8516
1.4435 -87.5555 4.8639
1.5472 -87.5544 4.8631
1.6506 -87.554 4.8572
1.7543 -87.553 4.8556
1.8586 -87.55 4.8687
1.9633 -87.5455 4.8934
2.0676 -87.5424 4.9072
2.1707 -87.5431 4.8932
2.2732 -87.546 4.8628
2.3759 -87.5485 4.8348
2.4789 -87.5497 4.8173
2.5823 -87.5499 4.807
2.6857 -87.5498 4.799
2.7893 -87.5494 4.7929
2.8927 -87.5495 4.7834
2.9958 -87.5507 4.7655
3.0988 -87.552 4.7465
3.202 -87.5532 4.7287
3.3049 -87.5553 4.7046
3.4076 -87.558 4.6753
3.5106 -87.56 4.6518
3.614 -87.5607 4.6379
3.7175 -87.5605 4.6304
3.8212 -87.5599 4.626
3.925 -87.5587 4.6258
4.0289 -87.5571 4.6294
4.1326 -87.5563 4.6259
4.2359 -87.5573 4.6098
4.3392 -87.5586 4.5917
4.4427 -87.5589 4.5803
4.5461 -87.5595 4.5675
4.6493 -87.5611 4.5464
4.7525 -87.5628 4.5254
4.856 -87.5636 4.5105
4.9594 -87.5642 4.4974
5.0629 -87.5652 4.4814
5.1662 -87.5667 4.4612
5.2694 -87.5688 4.4371
5.3725 -87.5712 4.4103
5.4758 -87.5729 4.3887
5.5795 -87.5732 4.3781
5.6831 -87.5733 4.3687
5.7865 -87.5748 4.3487
5.8898 -87.5771 4.3226
5.9931 -87.5794 4.297
6.0963 -87.5823 4.2668
6.1994 -87.5862 4.2294
6.3025 -87.5896 4.1949
6.4061 -87.5909 4.1769
6.5101 -87.5894 4.1795
6.6145 -87.5863 4.1937
6.7188 -87.5829 4.2105
6.8231 -87.58 4.2234
6.9272 -87.5784 4.2268
7.0311 -87.5777 4.2235
7.1351 -87.576 4.2275
7.2394 -87.5726 4.2443
7.3438 -87.5691 4.2617
7.4479 -87.5666 4.2718
7.552 -87.5647 4.2773
7.656 -87.5632 4.2797
7.7599 -87.5628 4.2747
7.8635 -87.5644 4.2542
7.9668 -87.5677 4.2204
8.0702 -87.5716 4.1832
8.1735 -87.5761 4.1414
8.2767 -87.5814 4.093
8.3801 -87.586 4.0507
8.4837 -87.5884 4.0237
8.5875 -87.5898 4.0055
8.6913 -87.5907 3.9898
8.7953 -87.5906 3.9821
8.8989 -87.5938 3.9497
-13.8541 -88.0459 3.4054
-13.7378 -88.0284 3.5241
-13.6239 -88.0142 3.6191
-13.5095 -87.9992 3.7195
-13.3938 -87.9821 3.8349
-13.2793 -87.9667 3.9386
-13.1668 -87.9539 4.0232
-13.0557 -87.943 4.0935
-12.9456 -87.9333 4.1548
-12.8365 -87.925 4.206
-12.7287 -87.9184 4.2443
-12.622 -87.9134 4.2717
-12.5156 -87.9088 4.295
-12.4091 -87.9039 4.3211
-12.3022 -87.8985 4.3514
-12.1953 -87.8931 4.3809
-12.0892 -87.8888 4.4029
-11.9842 -87.886 4.4137
-11.8799 -87.8843 4.4159
-11.7756 -87.8824 4.42
-11.6705 -87.8795 4.4312
-11.5653 -87.8764 4.4446
-11.46 -87.8731 4.4588
-11.354 -87.8689 4.48
-11.2479 -87.8643 4.5035
-11.1427 -87.8612 4.5167
-11.0386 -87.8596 4.5189
-10.9344 -87.8579 4.5211
-10.8295 -87.8552 4.5315
-10.7239 -87.8512 4.5506
-10.6178 -87.8466 4.5748
-10.5118 -87.8421 4.5983
-10.4061 -87.8381 4.6178
-10.3004 -87.834 4.6384
-10.1947 -87.8297 4.6599
-10.0901 -87.8274 4.6674
-9.9874 -87.8279 4.6535
-9.8848 -87.8286 4.6385
-9.7805 -87.8267 4.6431
-9.6746 -87.8221 4.6673
-9.5687 -87.8177 4.6901
-9.4653 -87.8171 4.6844
-9.3638 -87.8195 4.6566
-9.2606 -87.8194 4.6479
-9.1546 -87.8146 4.6739
-9.0476 -87.8081 4.7115
-8.9415 -87.8032 4.7382
-8.8371 -87.8008 4.7459
-8.7335 -87.7999 4.7429
-8.63 -87.7992 4.7384
-8.5266 -87.7987 4.7322
-8.4233 -87.7983 4.726
-8.3197 -87.7974 4.7227
-8.2164 -87.7969 4.7164
-8.1138 -87.7979 4.6996
-8.0123 -87.8005 4.6706
-7.911 -87.8037 4.6375
-7.8095 -87.8065 4.6068
-7.7083 -87.8098 4.5727
-7.6076 -87.8141 4.5312
-7.5066 -87.818 4.4929
-7.4041 -87.8192 4.4744
-7.2997 -87.8172 4.4798
-7.1941 -87.8129 4.5015
-7.0882 -87.8081 4.5278
-6.9827 -87.8039 4.5491
-6.8777 -87.8005 4.5647
-6.7728 -87.7974 4.5776
-6.6682 -87.7948 4.5874
-6.5637 -87.7924 4.5956
-6.4588 -87.7891 4.61
-6.353 -87.7844 4.6357
-6.2473 -87.7796 4.6616
-6.1423 -87.776 4.6783
-6.0374 -87.7728 4.6929
-5.9323 -87.7692 4.7099
-5.8278 -87.7665 4.7199
-5.7245 -87.7663 4.7122
-5.6223 -87.7682 4.6883
-5.5204 -87.7706 4.6613
-5.4176 -87.7715 4.6453
-5.3138 -87.7702 4.6452
-5.2091 -87.7673 4.6569
-5.1043 -87.764 4.6721
-4.9994 -87.7607 4.687
-4.8943 -87.7567 4.707
-4.7884 -87.7513 4.7378
-4.6822 -87.7452 4.7731
-4.5766 -87.74 4.802
-4.4717 -87.7365 4.819
-4.3675 -87.7344 4.8247
-4.2635 -87.7327 4.8283
-4.159 -87.7298 4.8403
-4.0541 -87.7261 4.858
-3.9492 -87.7225 4.875
-3.8446 -87.7194 4.8886
-3.741 -87.7184 4.8872
-3.6381 -87.719 4.8734
-3.5346 -87.7182 4.87
-3.4306 -87.7164 4.8735
-3.3272 -87.7159 4.8677
-3.2242 -87.7164 4.8547
-3.1206 -87.7155 4.8523
-3.0164 -87.7132 4.8597
-2.9134 -87.7137 4.847
-2.8126 -87.7191 4.7977
-2.7124 -87.7261 4.7368
-2.6108 -87.7299 4.6992
-2.5073 -87.7295 4.6929
-2.4036 -87.7285 4.6911
-2.3 -87.7277 4.6874
-2.1961 -87.7262 4.6895
-2.0918 -87.7238 4.6982
-1.9875 -87.7213 4.7071
-1.8835 -87.7197 4.71
-1.7801 -87.7195 4.7024
-1.6773 -87.7206 4.6843
-1.5744 -87.7217 4.6672
-1.4707 -87.7207 4.6652
-1.3663 -87.7181 4.6758
-1.2616 -87.7147 4.6918
-1.1567 -87.7106 4.7127
-1.0519 -87.7067 4.732
-0.9478 -87.7047 4.738
-0.8442 -87.7039 4.7349
-0.7404 -87.7027 4.7344
-0.6365 -87.7011 4.7373
-0.5325 -87.6993 4.7411
-0.4286 -87.6977 4.7441
-0.3249 -87.6967 4.7422
-0.2217 -87.697 4.7308
-0.1189 -87.6985 4.7107
-0.0159 -87.6997 4.6926
0.0878 -87.6985 4.6924
0.1925 -87.695 4.7096
0.2972 -87.691 4.7302
0.4015 -87.6882 4.7416
0.5051 -87.6875 4.7378
0.6085 -87.6877 4.7274
0.7121 -87.6869 4.724
0.8163 -87.6844 4.7338
0.921 -87.6804 4.7548
1.0261 -87.6752 4.784
1.1314 -87.6693 4.8185
1.2366 -87.6635 4.8529
1.3414 -87.659 4.8771
1.4454 -87.6569 4.8836
1.5488 -87.6566 4.8768
1.6522 -87.6566 4.8678
1.7559 -87.6553 4.8684
1.8602 -87.6522 4.8828
1.9647 -87.6483 4.9021
2.0687 -87.6463 4.9086
2.1717 -87.6474 4.8914
2.2742 -87.6505 4.8598
2.3768 -87.653 4.8321
2.4799 -87.6541 4.815
2.5831 -87.6548 4.8009
2.6864 -87.6555 4.7869
2.7898 -87.6554 4.7787
2.8933 -87.6553 4.7707
2.9964 -87.6566 4.7521
3.0993 -87.6585 4.7287
3.2023 -87.6603 4.7067
3.3051 -87.6628 4.6791
3.4077 -87.6661 4.6463
3.5105 -87.6689 4.6165
3.6136 -87.6706 4.5953
3.7171 -87.6708 4.5846
3.8208 -87.6699 4.583
3.9248 -87.6682 4.5866
4.0287 -87.6667 4.5891
4.1323 -87.6663 4.5828
4.2357 -87.6672 4.5677
4.3391 -87.6679 4.5537
4.4427 -87.6679 4.545
4.5463 -87.6679 4.5363
4.6497 -87.6685 4.5227
4.7531 -87.6697 4.5053
4.8565 -87.6706 4.4894
4.96 -87.6711 4.4773
5.0635 -87.6714 4.4665
5.1671 -87.6719 4.4537
5.2705 -87.6732 4.4359
5.3737 -87.6749 4.4142
5.4772 -87.6761 4.3969
5.5809 -87.676 4.3885
5.6845 -87.6762 4.3784
5.7878 -87.6782 4.355
5.8909 -87.6814 4.3229
5.994 -87.6848 4.2891
6.097 -87.6887 4.251
6.2 -87.6932 4.2089
6.3031 -87.6967 4.1744
6.4068 -87.6973 4.1615
6.511 -87.6951 4.1694
6.6154 -87.6915 4.1874
6.7199 -87.6878 4.2067
6.8242 -87.6843 4.2239
6.9285 -87.6814 4.2363
7.0326 -87.6795 4.2423
7.1367 -87.6771 4.2512
7.241 -87.6738 4.2673
7.3453 -87.6707 4.2821
7.4494 -87.6684 4.2905
7.5534 -87.6668 4.2937
7.6574 -87.6658 4.2924
7.7612 -87.6657 4.2852
7.8648 -87.6672 4.2654
7.9682 -87.6706 4.2314
8.0715 -87.6748 4.1922
8.1748 -87.679 4.152
8.2782 -87.6832 4.1125
8.3817 -87.6865 4.0792
8.4853 -87.6888 4.054
8.693 -87.6903 4.0257
8.7968 -87.6916 4.0081
8.8989 -87.7092 3.8688
-13.958 -88.1525 3.4012
-13.8359 -88.1272 3.5771
-13.7233 -88.1147 3.6591
-13.6128 -88.1049 3.7205
-13.5017 -88.0943 3.7887
-13.3902 -88.083 3.8613
-13.279 -88.072 3.9324
-13.1678 -88.061 4.0031
-13.0566 -88.0499 4.0749
-12.9457 -88.0392 4.1433
-12.8361 -88.03 4.2006
-12.728 -88.0231 4.2418
-12.6211 -88.0178 4.2705
-12.5148 -88.0133 4.2935
-12.4086 -88.0089 4.3162
-12.3022 -88.0042 4.3404
-12.196 -87.9998 4.3631
-12.0904 -87.9961 4.3802
-11.9855 -87.9936 4.389
-11.8813 -87.9918 4.3916
-11.7768 -87.9899 4.3957
-11.6717 -87.987 4.4077
-11.566 -87.983 4.4265
-11.4598 -87.9786 4.4496
-11.3537 -87.974 4.4735
-11.2481 -87.9703 4.4907
-11.1436 -87.9681 4.4968
-11.0396 -87.9667 4.4973
-10.9351 -87.9646 4.5029
-10.8298 -87.9613 4.5173
-10.7241 -87.9572 4.5374
-10.6182 -87.9529 4.5591
-10.5125 -87.9489 4.579
-10.4069 -87.945 4.5978
-10.3009 -87.9404 4.6217
-10.1945 -87.9352 4.6505
-10.0892 -87.9317 4.6663
-9.9863 -87.9319 4.6545
-9.8836 -87.9325 4.6409
-9.7788 -87.9297 4.6515
-9.6725 -87.9246 4.6794
-9.567 -87.9205 4.6995
-9.464 -87.9206 4.6887
-9.3625 -87.9232 4.6604
-9.2593 -87.923 4.6519
-9.1535 -87.9185 4.6752
-9.047 -87.9129 4.7067
-8.9416 -87.909 4.726
-8.8373 -87.907 4.7306
-8.7337 -87.9061 4.7276
-8.6302 -87.9053 4.7237
-8.5266 -87.9044 4.7206
-8.4229 -87.9034 4.7186
-8.3194 -87.9027 4.714
-8.2167 -87.9034 4.6995
-8.1149 -87.9056 4.6735
-8.0134 -87.9083 4.6434
-7.9117 -87.9107 4.616
-7.81 -87.9132 4.5879
-7.709 -87.9171 4.5501
-7.6084 -87.9215 4.5076
-7.5071 -87.9249 4.4735
-7.4043 -87.9256 4.4581
-7.2998 -87.9234 4.4648
-7.1942 -87.919 4.4876
-7.0882 -87.914 4.5149
-6.9826 -87.9096 4.5379
-6.8772 -87.9056 4.5574
-6.7721 -87.9022 4.5735
-6.6676 -87.8996 4.5825
-6.5631 -87.8973 4.5902
-6.4579 -87.8935 4.6083
-6.3521 -87.8886 4.6349
-6.2466 -87.8843 4.6572
-6.1417 -87.8811 4.6718
-6.0367 -87.8776 4.6877
-5.9314 -87.8734 4.7092
-5.8264 -87.8699 4.7252
-5.7229 -87.8692 4.7212
-5.6207 -87.8712 4.697
-5.5191 -87.8741 4.6658
-5.4168 -87.876 4.6428
-5.3133 -87.8754 4.6374
-5.2088 -87.8729 4.6465
-5.1039 -87.8695 4.6617
-4.9989 -87.8659 4.6794
-4.8935 -87.8613 4.7035
-4.7874 -87.8555 4.7367
-4.6812 -87.8493 4.7732
-4.5755 -87.844 4.8028
-4.4708 -87.8408 4.817
-4.367 -87.8395 4.8175
-4.2631 -87.8381 4.8186
-4.1585 -87.8349 4.8323
-4.0534 -87.8309 4.8525
-3.9485 -87.8273 4.8697
-3.8441 -87.8245 4.8812
-3.7404 -87.8235 4.8793
-3.6374 -87.8237 4.8686
-3.5338 -87.8229 4.8646
-3.4303 -87.8222 4.8607
-3.3274 -87.8227 4.8476
-3.2247 -87.8238 4.8302
-3.1215 -87.8239 4.8203
-3.0181 -87.8235 4.8137
-2.916 -87.826 4.7861
-2.8151 -87.8315 4.7365
-2.7138 -87.836 4.694
-2.6103 -87.8355 4.6884
-2.5055 -87.8318 4.7061
-2.401 -87.8291 4.7173
-2.2974 -87.8281 4.7149
-2.1938 -87.8274 4.711
-2.0897 -87.8256 4.7154
-1.9855 -87.8233 4.7232
-1.8817 -87.8219 4.7239
-1.7785 -87.8222 4.7125
-1.6759 -87.824 4.69
-1.5734 -87.826 4.6659
-1.4702 -87.8262 4.6553
-1.3658 -87.8235 4.6662
-1.2606 -87.8187 4.6924
-1.1551 -87.8134 4.7228
-1.0503 -87.8093 4.7433
-0.9465 -87.8082 4.7427
-0.8432 -87.8083 4.7329
-0.7396 -87.8074 4.7303
-0.6356 -87.8056 4.7342
-0.5317 -87.8041 4.7364
-0.4279 -87.8029 4.736
-0.3243 -87.802 4.7337
-0.2208 -87.8018 4.7262
-0.1178 -87.8026 4.711
-0.0147 -87.8035 4.6955
0.089 -87.8025 4.6935
0.1936 -87.7991 4.7101
0.2986 -87.7943 4.7363
0.4034 -87.79 4.7587
0.5076 -87.7875 4.7681
0.6113 -87.7865 4.7665
0.7151 -87.7853 4.7664
0.8193 -87.7828 4.776
0.9238 -87.7792 4.7934
1.0286 -87.7749 4.8161
1.1336 -87.7699 4.8444
1.2386 -87.7646 4.8742
1.3432 -87.7606 4.8954
1.4472 -87.7586 4.9009
1.5505 -87.7586 4.8922
1.6537 -87.7591 4.8796
1.7573 -87.7583 4.8766
1.8615 -87.7557 4.887
1.9657 -87.7528 4.8995
2.0694 -87.7515 4.9
2.1724 -87.7528 4.8811
2.2749 -87.7558 4.85
2.3776 -87.7582 4.824
2.4808 -87.759 4.8089
2.584 -87.7598 4.7939
2.687 -87.7611 4.776
2.7903 -87.7615 4.7641
2.8937 -87.7617 4.7534
2.9966 -87.7639 4.7285
3.0991 -87.7673 4.6946
3.2018 -87.7704 4.6628
3.3045 -87.7735 4.6308
3.4071 -87.777 4.5961
3.5097 -87.7804 4.5623
3.6126 -87.7828 4.5355
3.716 -87.7836 4.5213
3.8198 -87.7825 4.5201
3.9239 -87.7804 4.5269
4.0279 -87.7788 4.5302
4.1315 -87.7789 4.5211
4.2349 -87.7796 4.5064
4.3383 -87.7801 4.4941
4.4419 -87.7803 4.4842
4.5455 -87.7802 4.4763
4.6492 -87.7798 4.4703
4.7529 -87.7797 4.4625
4.8565 -87.7798 4.4531
4.9602 -87.7796 4.4461
5.0638 -87.7795 4.4378
5.1674 -87.78 4.4253
5.2709 -87.7807 4.4114
5.3744 -87.7813 4.3985
5.4781 -87.7814 4.3892
5.5819 -87.7809 4.384
5.6855 -87.7812 4.3735
5.7888 -87.7833 4.3488
5.8918 -87.7868 4.3148
5.9949 -87.7905 4.2789
6.0979 -87.7946 4.2396
6.2008 -87.7992 4.1968
6.304 -87.8024 4.1651
6.4079 -87.8022 4.1576
6.5121 -87.7996 4.1684
6.6166 -87.7958 4.1877
6.721 -87.7918 4.2089
6.8255 -87.7878 4.2297
6.9299 -87.7839 4.2504
7.0342 -87.7805 4.267
7.1385 -87.7775 4.2808
7.2427 -87.7744 4.2947
7.3469 -87.7718 4.3056
7.451 -87.7699 4.3112
7.5549 -87.7689 4.31
7.6587 -87.7687 4.3029
7.7626 -87.7683 4.2974
7.8664 -87.7684 4.2886
7.9698 -87.7712 4.2594
8.073 -87.7761 4.2147
8.1763 -87.7809 4.1708
8.2797 -87.7847 4.1339
8.4868 -87.79 4.0782
8.5906 -87.7914 4.0591
8.6945 -87.7918 4.0475
8.7982 -87.7936 4.0257
-14.1712 -88.267 3.3492
-14.0564 -88.2517 3.4514
-13.942 -88.2368 3.5502
-13.8273 -88.2214 3.6528
-13.7158 -88.2103 3.7244
-13.6064 -88.202 3.7753
-13.4976 -88.1944 3.8205
-13.3889 -88.1869 3.8654
-13.2795 -88.1785 3.9172
-13.1688 -88.1682 3.9831
-13.0572 -88.1564 4.0589
-12.9459 -88.1451 4.1319
-12.836 -88.1357 4.191
-12.7279 -88.1287 4.2322
-12.621 -88.1233 4.262
-12.5144 -88.1184 4.2877
-12.4082 -88.114 4.3098
-12.3023 -88.1101 4.3289
-12.1966 -88.1062 4.3472
-12.0911 -88.1028 4.362
-11.9863 -88.1004 4.3699
-11.8819 -88.0985 4.374
-11.7773 -88.0963 4.3805
-11.672 -88.0931 4.3939
-11.5658 -88.0885 4.4176
-11.459 -88.083 4.448
-11.3527 -88.0783 4.4728
-11.2478 -88.0755 4.483
-11.1439 -88.0743 4.4824
-11.04 -88.073 4.4817
-10.9354 -88.0707 4.4888
-10.8301 -88.0674 4.5031
-10.7248 -88.064 4.5186
-10.6194 -88.0605 4.5344
-10.5139 -88.0567 4.552
-10.4082 -88.0527 4.5719
-10.302 -88.0478 4.5979
-10.1953 -88.0421 4.6302
-10.0893 -88.0376 4.6535
-9.9854 -88.0362 4.6537
-9.8819 -88.0354 4.6499
-9.7767 -88.0321 4.6646
-9.6706 -88.0273 4.69
-9.5657 -88.0241 4.7032
-9.4627 -88.0244 4.6919
-9.3608 -88.0261 4.6694
-9.2575 -88.0257 4.6623
-9.1521 -88.022 4.6802
-9.0462 -88.0173 4.7049
-8.941 -88.0139 4.7202
-8.8369 -88.012 4.724
-8.7333 -88.0112 4.7206
-8.6298 -88.0105 4.7158
-8.5262 -88.0095 4.7135
-8.4224 -88.0084 4.7118
-8.3194 -88.0085 4.7017
-8.2176 -88.0108 4.6751
-8.1165 -88.0142 4.6401
-8.015 -88.0169 4.6109
-7.9129 -88.0188 4.5876
-7.8113 -88.0215 4.5581
-7.7102 -88.0251 4.5219
-7.6087 -88.0281 4.4901
-7.5066 -88.03 4.4667
-7.4037 -88.0305 4.453
-7.2995 -88.0289 4.4557
-7.1941 -88.025 4.4748
-7.0883 -88.0203 4.4998
-6.9826 -88.0157 4.524
-6.8769 -88.011 4.5484
-6.7713 -88.0068 4.5701
-6.6667 -88.0041 4.5801
-6.5624 -88.002 4.586
-6.4572 -87.9983 4.6041
-6.3514 -87.9934 4.6304
-6.2461 -87.9893 4.6508
-6.1413 -87.9862 4.664
-6.0364 -87.983 4.6786
-5.9311 -87.979 4.6984
-5.8261 -87.9754 4.7151
-5.7222 -87.9739 4.7165
-5.6195 -87.9748 4.7004
-5.5175 -87.9771 4.6741
-5.4153 -87.9793 4.649
-5.3123 -87.9796 4.6371
-5.2081 -87.9777 4.6418
-5.1032 -87.9743 4.6569
-4.998 -87.9702 4.6782
-4.8923 -87.9652 4.7054
-4.7863 -87.9593 4.739
-4.6802 -87.9534 4.7736
-4.5748 -87.9488 4.7978
-4.4705 -87.9465 4.8053
-4.3668 -87.9454 4.8038
-4.2627 -87.9436 4.8081
-4.1579 -87.9401 4.8243
-4.0529 -87.936 4.8447
-3.9482 -87.9329 4.8587
-3.8443 -87.9312 4.8615
-3.7408 -87.9306 4.8568
-3.6371 -87.9294 4.8563
-3.5336 -87.9287 4.8519
-3.4308 -87.9295 4.8368
-3.3284 -87.9314 4.8137
-3.226 -87.9332 4.791
-3.1233 -87.9343 4.7735
-3.0206 -87.9355 4.7557
-2.9183 -87.9378 4.7297
-2.8161 -87.9401 4.7032
-2.7127 -87.9399 4.6952
-2.6079 -87.9363 4.7131
-2.5024 -87.9312 4.7411
-2.3978 -87.928 4.7552
-2.2945 -87.9279 4.7469
-2.1915 -87.9286 4.7326
-2.0879 -87.9279 4.7289
-1.984 -87.9263 4.7312
-1.8804 -87.9256 4.727
-1.7774 -87.9262 4.7135
-1.6747 -87.9276 4.6939
-1.5722 -87.9297 4.6695
-1.4693 -87.931 4.6509
-1.3652 -87.9289 4.6573
-1.2598 -87.9236 4.6868
-1.1542 -87.9177 4.7208
-1.0494 -87.9139 4.7401
-0.9459 -87.9133 4.7352
-0.8427 -87.9137 4.7232
-0.7388 -87.9122 4.7255
-0.6344 -87.9094 4.7368
-0.5305 -87.9078 4.7392
-0.427 -87.9074 4.733
-0.3235 -87.9069 4.7278
-0.2198 -87.9061 4.7252
-0.1163 -87.9056 4.7196
-0.013 -87.9057 4.7095
0.0907 -87.9049 4.7065
0.1952 -87.9014 4.7231
0.3004 -87.8962 4.7524
0.4054 -87.8913 4.7795
0.51 -87.8878 4.7961
0.614 -87.8859 4.8013
0.7178 -87.8846 4.8024
0.8219 -87.8823 4.8097
0.9263 -87.8791 4.8243
1.0308 -87.8755 4.8424
1.1355 -87.8713 4.8638
1.2403 -87.8669 4.8877
1.3449 -87.8629 4.9081
1.449 -87.8605 4.9171
1.5524 -87.8602 4.9098
1.6553 -87.8615 4.892
1.7586 -87.8618 4.8807
1.8626 -87.8597 4.8873
1.9669 -87.8566 4.9014
2.0706 -87.8552 4.9025
2.1734 -87.857 4.8801
2.2758 -87.8605 4.8455
2.3785 -87.863 4.8185
2.4816 -87.864 4.802
2.5846 -87.8654 4.783
2.6875 -87.8674 4.7595
2.7906 -87.8685 4.7423
2.8937 -87.8699 4.7236
2.9962 -87.8735 4.6878
3.0984 -87.8783 4.6442
3.2008 -87.8822 4.6061
3.3035 -87.8856 4.5728
3.4061 -87.8892 4.5374
3.5086 -87.8931 4.4996
3.6114 -87.8962 4.4677
3.7147 -87.8975 4.4499
3.8185 -87.8965 4.4484
3.9227 -87.8943 4.4556
4.0266 -87.8929 4.4573
4.1302 -87.8931 4.4475
4.2337 -87.8935 4.4354
4.3373 -87.8938 4.4249
4.4407 -87.8944 4.4111
4.5443 -87.8948 4.3994
4.6481 -87.8941 4.3961
4.752 -87.8928 4.3972
4.856 -87.8913 4.3993
4.9599 -87.89 4.4005
5.0637 -87.8894 4.3959
5.1674 -87.8896 4.386
5.2711 -87.8895 4.3782
5.3748 -87.889 4.3733
5.4787 -87.8883 4.3695
5.5825 -87.8877 4.3657
5.6861 -87.8881 4.3539
5.7894 -87.8904 4.3282
5.8924 -87.8938 4.2945
5.9955 -87.8972 4.2608
6.0987 -87.9007 4.2266
6.2018 -87.9044 4.191
6.3052 -87.9066 4.1659
6.409 -87.9063 4.1597
6.5133 -87.9039 4.1686
6.6177 -87.9 4.1888
6.7223 -87.8952 4.2161
6.827 -87.89 4.2458
6.9315 -87.8853 4.2721
7.0359 -87.8814 4.2918
7.1402 -87.878 4.3088
7.2444 -87.8749 4.3232
7.3485 -87.8729 4.3293
7.4524 -87.8719 4.3281
7.5562 -87.8719 4.3201
7.6599 -87.8723 4.3085
7.7639 -87.871 4.3095
7.868 -87.8689 4.3165
7.9715 -87.871 4.2928
8.0746 -87.8767 4.2423
8.1778 -87.882 4.1945
8.2812 -87.886 4.1565
8.3846 -87.8897 4.1213
8.4881 -87.8931 4.0879
8.5918 -87.8953 4.0625
8.6957 -87.8955 4.0527
8.7993 -87.8983 4.0243
-14.2734 -88.3712 3.3626
-14.1572 -88.3541 3.4778
-14.0449 -88.3421 3.5556
-13.9331 -88.3307 3.6286
-13.8214 -88.3194 3.7012
-13.7115 -88.3103 3.7576
-13.6033 -88.3036 3.796
-13.4961 -88.2983 3.8253
-13.3888 -88.2927 3.8562
-13.2802 -88.2853 3.9003
-13.1695 -88.2749 3.9659
-13.0578 -88.2631 4.0422
-12.9469 -88.2522 4.1117
-12.8375 -88.2435 4.1656
-12.7295 -88.2366 4.206
-12.6221 -88.2306 4.2398
-12.5152 -88.2252 4.2698
-12.4089 -88.2207 4.2924
-12.3033 -88.2171 4.3091
-12.1976 -88.2134 4.326
-12.092 -88.2099 4.3419
-11.987 -88.2071 4.3523
-11.8823 -88.2048 4.3594
-11.7775 -88.2023 4.3676
-11.6721 -88.1989 4.3822
-11.5657 -88.194 4.4086
-11.4587 -88.1882 4.4408
-11.3527 -88.1838 4.463
-11.248 -88.1815 4.4704
-11.1439 -88.18 4.4715
-11.0396 -88.1782 4.4747
-10.9349 -88.1757 4.4833
-10.8299 -88.1729 4.4941
-10.7252 -88.1704 4.5026
-10.6203 -88.1676 4.513
-10.515 -88.1641 4.529
-10.4094 -88.1602 4.5475
-10.3033 -88.1555 4.5721
-10.1964 -88.1496 4.6057
-10.0899 -88.1441 4.6357
-9.9849 -88.141 4.6487
-9.8805 -88.1389 4.6545
-9.7754 -88.1356 4.6688
-9.67 -88.1319 4.686
-9.5659 -88.1303 4.6885
-9.463 -88.1306 4.6766
-9.3603 -88.1311 4.6634
-9.2565 -88.1299 4.6624
-9.1513 -88.1265 4.6774
-9.0457 -88.1222 4.699
-8.9405 -88.1188 4.7142
-8.8364 -88.117 4.7176
-8.7328 -88.1162 4.7139
-8.6293 -88.1154 4.71
-8.5256 -88.1144 4.7075
-8.4222 -88.1139 4.7021
-8.3199 -88.1152 4.6827
-8.219 -88.119 4.6451
-8.1184 -88.1234 4.6037
-8.017 -88.1264 4.5721
-7.9152 -88.1288 4.5449
-7.8138 -88.1318 4.5134
-7.7119 -88.134 4.4875
-7.6087 -88.134 4.4776
-7.5052 -88.1336 4.4713
-7.402 -88.1335 4.4622
-7.2983 -88.1327 4.459
-7.1936 -88.1301 4.468
-7.0884 -88.1264 4.486
-6.9827 -88.1219 4.5093
-6.8767 -88.1168 4.5372
-6.7709 -88.1119 4.5631
-6.666 -88.1088 4.5766
-6.5616 -88.1065 4.5836
-6.4564 -88.103 4.6003
-6.3508 -88.0984 4.6243
-6.2457 -88.0946 4.6424
-6.141 -88.0918 4.6538
-6.0363 -88.0889 4.6655
-5.9314 -88.0855 4.6806
-5.8265 -88.0823 4.6946
-5.7223 -88.0803 4.6999
-5.6189 -88.0798 4.6941
-5.5161 -88.0807 4.6785
-5.4137 -88.0821 4.6584
-5.3107 -88.0826 4.6455
-5.2068 -88.0812 4.6467
-5.102 -88.078 4.6603
-4.9967 -88.0738 4.6818
-4.8911 -88.0689 4.7083
-4.7852 -88.0634 4.7391
-4.6795 -88.0582 4.7684
-4.5745 -88.0545 4.7856
-4.4705 -88.0527 4.7898
-4.3665 -88.0511 4.7923
-4.2622 -88.0486 4.8012
-4.1574 -88.0451 4.8171
-4.0524 -88.0413 4.8361
-3.9478 -88.0382 4.8494
-3.8439 -88.0368 4.8506
-3.7404 -88.0359 4.8476
-3.6368 -88.0352 4.8437
-3.5339 -88.0359 4.8294
-3.4319 -88.0385 4.8008
-3.3302 -88.0419 4.7668
-3.2282 -88.0447 4.737
-3.1257 -88.0462 4.7164
-3.0227 -88.0468 4.7031
-2.9192 -88.0464 4.6968
-2.815 -88.0442 4.7034
-2.7101 -88.0405 4.7216
-2.6047 -88.0355 4.749
-2.4993 -88.0305 4.7766
-2.3951 -88.0281 4.7851
-2.2922 -88.0291 4.7687
-2.1896 -88.0307 4.7475
-2.0864 -88.0308 4.7376
-1.9828 -88.03 4.7342
-1.8795 -88.0299 4.7256
-1.7764 -88.0305 4.7122
-1.6735 -88.0314 4.6967
-1.5708 -88.0331 4.6748
-1.4681 -88.0347 4.6541
-1.3642 -88.0333 4.6553
-1.2591 -88.0286 4.6804
-1.1537 -88.0234 4.7098
-1.0492 -88.0203 4.7236
-0.9459 -88.0202 4.7146
-0.8427 -88.0206 4.7032
-0.7384 -88.0181 4.7126
-0.6335 -88.0138 4.7347
-0.5292 -88.0112 4.745
-0.4257 -88.0107 4.7392
-0.3222 -88.0105 4.7317
-0.2184 -88.0092 4.7322
-0.1145 -88.0076 4.7353
-0.0108 -88.0068 4.7321
0.0929 -88.0057 4.7312
0.1975 -88.0021 4.7483
0.3026 -87.997 4.777
0.4075 -87.9924 4.8018
0.512 -87.989 4.8178
0.6161 -87.9869 4.8239
0.7198 -87.9857 4.8236
0.8238 -87.9839 4.8283
0.9281 -87.9808 4.8422
1.0326 -87.9772 4.8594
1.1371 -87.9738 4.8759
1.2416 -87.9702 4.8933
1.3461 -87.9664 4.9121
1.4504 -87.9635 4.9246
1.5538 -87.963 4.9194
1.6567 -87.9646 4.899
1.7597 -87.9658 4.8811
1.8635 -87.9644 4.8825
1.9678 -87.961 4.8986
2.0718 -87.959 4.9042
2.1746 -87.9609 4.8816
2.2769 -87.9646 4.8458
2.3795 -87.9673 4.817
2.4823 -87.9695 4.792
2.5847 -87.973 4.7573
2.6871 -87.9767 4.7211
2.79 -87.979 4.6956
2.8928 -87.9814 4.6691
2.9951 -87.9856 4.6297
3.0974 -87.9904 4.5856
3.1998 -87.9944 4.5476
3.3025 -87.9976 4.515
3.4051 -88.0014 4.4785
3.5076 -88.0058 4.437
3.6102 -88.0095 4.4016
3.7135 -88.0109 4.3824
3.8173 -88.01 4.3801
3.9214 -88.0081 4.3852
4.0253 -88.007 4.3847
4.129 -88.0069 4.3766
4.2327 -88.0066 4.3704
4.3364 -88.0066 4.3621
4.4397 -88.008 4.3426
4.543 -88.0095 4.3228
4.6468 -88.0091 4.3174
4.7509 -88.0072 4.3228
4.8551 -88.0049 4.3311
4.9592 -88.0029 4.3367
5.0632 -88.0016 4.3381
5.1672 -88.0002 4.3399
5.2712 -87.9983 4.3446
5.3752 -87.997 4.3459
5.4791 -87.9962 4.3433
5.5829 -87.9956 4.3391
5.6865 -87.9963 4.3254
5.7897 -87.999 4.2969
5.8927 -88.0025 4.2628
5.996 -88.0054 4.2329
6.0994 -88.0074 4.209
6.2028 -88.0093 4.1868
6.3064 -88.0106 4.1688
6.4102 -88.0107 4.1595
6.5142 -88.009 4.1633
6.6188 -88.0048 4.1855
6.7236 -87.9985 4.224
6.8285 -87.9916 4.2657
6.9331 -87.9865 4.2946
7.0374 -87.9833 4.3098
7.1417 -87.98 4.326
7.246 -87.9766 4.3427
7.3499 -87.9751 4.345
7.4537 -87.9753 4.3347
7.5573 -87.9763 4.319
7.661 -87.9769 4.3066
7.7651 -87.9748 4.3137
7.8694 -87.9715 4.3295
7.973 -87.973 4.31
8.076 -87.9786 4.2601
8.1793 -87.9835 4.2155
8.2826 -87.9875 4.1777
8.386 -87.9923 4.1341
8.4892 -87.9977 4.0858
8.5927 -88.002 4.0463
8.6963 -88.0048 4.0173
-14.5051 -88.5103 3.132
-14.3838 -88.4866 3.2947
-14.2661 -88.4674 3.4247
-14.1507 -88.4512 3.5322
-14.0379 -88.4385 3.6152
-13.9274 -88.4287 3.676
-13.818 -88.4205 3.7264
-13.7096 -88.4135 3.767
-13.6024 -88.4081 3.7961
-13.4957 -88.4035 3.8199
-13.3887 -88.3984 3.8474
-13.2804 -88.3913 3.8887
-13.1701 -88.3815 3.9503
-13.059 -88.3704 4.0208
-12.9488 -88.3607 4.0818
-12.8403 -88.3531 4.1272
-12.7325 -88.3466 4.1649
-12.6247 -88.3401 4.2025
-12.5174 -88.334 4.2366
-12.4109 -88.3293 4.261
-12.3051 -88.3254 4.2793
-12.1993 -88.3215 4.298
-12.0935 -88.3177 4.3158
-11.9883 -88.3146 4.3286
-11.8835 -88.3121 4.3368
-11.7786 -88.3096 4.3453
-11.6729 -88.3059 4.3628
-11.5662 -88.3005 4.3921
-11.4594 -88.295 4.4226
-11.3536 -88.291 4.442
-11.2487 -88.2882 4.452
-11.1439 -88.2857 4.4603
-11.0392 -88.2832 4.4691
-10.9343 -88.2805 4.4786
-10.8295 -88.2779 4.4879
-10.7249 -88.2756 4.4954
-10.6201 -88.273 4.5045
-10.5151 -88.27 4.5163
-10.4099 -88.2667 4.5304
-10.304 -88.2624 4.5527
-10.1971 -88.2564 4.5864
-10.0904 -88.2507 4.6182
-9.985 -88.247 4.6354
-9.8804 -88.2446 4.6434
-9.7757 -88.2419 4.6536
-9.671 -88.2393 4.6627
-9.5674 -88.2384 4.6594
-9.4644 -88.2386 4.6486
-9.3608 -88.2378 4.6447
-9.2563 -88.2354 4.6521
-9.151 -88.2317 4.6693
-9.0453 -88.2275 4.6908
-8.9404 -88.2243 4.7044
-8.8365 -88.2229 4.7048
-8.7329 -88.2221 4.7012
-8.6292 -88.221 4.6993
-8.5256 -88.2203 4.6953
-8.4227 -88.2205 4.6841
-8.3209 -88.2227 4.6582
-8.2204 -88.2272 4.6159
-8.1201 -88.2322 4.5699
-8.0193 -88.2363 4.5299
-7.9183 -88.24 4.4933
-7.8166 -88.2428 4.4639
-7.7133 -88.2426 4.4557
-7.6085 -88.2397 4.4672
-7.5037 -88.237 4.4775
-7.4 -88.236 4.4749
-7.2966 -88.2357 4.4676
-7.1928 -88.2346 4.4663
-7.0881 -88.232 4.476
-6.9826 -88.2277 4.4974
-6.8765 -88.2225 4.5258
-6.7707 -88.2177 4.5516
-6.6655 -88.2141 4.5685
-6.5606 -88.2109 4.5822
-6.4554 -88.2071 4.6002
-6.3502 -88.2032 4.6197
-6.2453 -88.2 4.6338
-6.1407 -88.1973 4.6437
-6.0361 -88.1946 4.6543
-5.9313 -88.1915 4.6674
-5.8266 -88.1886 4.679
-5.7224 -88.1866 4.6845
-5.6187 -88.1855 4.6828
-5.5154 -88.1854 4.674
-5.4124 -88.1858 4.6616
-5.3091 -88.1856 4.6543
-5.205 -88.1838 4.6576
-5.1003 -88.1807 4.6708
-4.9951 -88.1768 4.6903
-4.8897 -88.1723 4.7135
-4.7842 -88.1676 4.7388
-4.6789 -88.1633 4.7611
-4.5742 -88.1601 4.7747
-4.47 -88.1579 4.7816
-4.3658 -88.1558 4.7879
-4.2615 -88.1534 4.7959
-4.157 -88.1506 4.8074
-4.0521 -88.147 4.8245
-3.9473 -88.1436 4.8397
-3.8433 -88.1418 4.8438
-3.7399 -88.1413 4.8377
-3.6372 -88.1423 4.8212
-3.5353 -88.1451 4.7915
-3.4338 -88.1491 4.7535
-3.3324 -88.1532 4.7141
-3.2305 -88.1564 4.6816
-3.1277 -88.1574 4.6651
-3.0236 -88.1555 4.6696
-2.9185 -88.1512 4.6919
-2.8128 -88.1457 4.7228
-2.7073 -88.1403 4.7528
-2.6019 -88.1355 4.779
-2.4971 -88.1317 4.7977
-2.3933 -88.1304 4.7978
-2.2906 -88.1317 4.7795
-2.1879 -88.1332 4.7592
-2.0848 -88.1335 4.7477
-1.9814 -88.1332 4.7406
-1.8781 -88.1333 4.7311
-1.775 -88.1337 4.7192
-1.672 -88.1345 4.7038
-1.5694 -88.1364 4.6814
-1.4667 -88.1378 4.6618
-1.3628 -88.1365 4.6623
-1.258 -88.1328 4.6804
-1.1533 -88.1291 4.6983
-1.0493 -88.1275 4.701
-0.9462 -88.1281 4.6877
-0.8429 -88.1281 4.6784
-0.7383 -88.1247 4.6941
-0.6329 -88.1194 4.7241
-0.5281 -88.1152 4.7455
-0.4241 -88.1135 4.7494
-0.3204 -88.1125 4.7472
-0.2164 -88.1106 4.7524
-0.1121 -88.1081 4.7618
-0.0083 -88.1066 4.764
0.0956 -88.1051 4.7653
0.2001 -88.1019 4.78
0.3049 -88.0975 4.8031
0.4095 -88.0939 4.821
0.5138 -88.0912 4.8317
0.6177 -88.0893 4.8365
0.7215 -88.088 4.8373
0.8254 -88.0863 4.841
0.9297 -88.0834 4.8527
1.0341 -88.0801 4.8685
1.1384 -88.0772 4.8808
1.2425 -88.0747 4.8903
1.3469 -88.0715 4.9047
1.4511 -88.0685 4.9177
1.5547 -88.0677 4.9149
1.6577 -88.069 4.8965
1.7606 -88.0705 4.8766
1.864 -88.0702 4.8702
1.968 -88.068 4.8774
2.0719 -88.0664 4.88
2.1749 -88.0675 4.8634
2.2775 -88.0702 4.8347
2.3801 -88.0731 4.8043
2.4822 -88.0778 4.7615
2.5837 -88.0847 4.7019
2.6856 -88.0904 4.6513
2.7882 -88.0937 4.6183
2.891 -88.0962 4.5914
2.9936 -88.0993 4.5595
3.0962 -88.1031 4.5236
3.1989 -88.1065 4.4898
3.3016 -88.1096 4.4584
3.4043 -88.1131 4.4236
3.5068 -88.1173 4.3843
3.6096 -88.1208 4.3496
3.7128 -88.1226 4.3279
3.8165 -88.1222 4.3224
3.9206 -88.1205 4.3262
4.0245 -88.1195 4.3249
4.1282 -88.1192 4.3181
4.2321 -88.1184 4.3151
4.3358 -88.1181 4.3087
4.439 -88.1201 4.2858
4.5422 -88.1225 4.2593
4.6458 -88.1228 4.2487
4.7499 -88.1213 4.2511
4.854 -88.1195 4.2556
4.958 -88.1179 4.2583
5.0621 -88.116 4.2637
5.1665 -88.1128 4.2785
5.271 -88.109 4.2983
5.3753 -88.1065 4.3077
5.4792 -88.1054 4.3068
5.583 -88.1048 4.3033
5.6866 -88.1057 4.2883
5.7898 -88.1087 4.2575
5.8929 -88.112 4.2247
5.9963 -88.114 4.2017
6.0999 -88.1147 4.1879
6.2037 -88.115 4.1773
6.3074 -88.1154 4.1653
6.4112 -88.1158 4.1543
6.5152 -88.1144 4.1555
6.6198 -88.1097 4.1817
6.7249 -88.1021 4.2292
6.8299 -88.0943 4.2779
6.9345 -88.0893 4.306
7.0386 -88.087 4.3145
7.1428 -88.0843 4.326
7.2471 -88.081 4.342
7.3511 -88.0793 4.3455
7.4547 -88.0801 4.3316
7.5583 -88.0816 4.3118
7.662 -88.0821 4.3002
7.7661 -88.0799 4.3078
7.8703 -88.0772 4.3189
7.9739 -88.0785 4.3014
8.0772 -88.0826 4.263
8.1806 -88.0862 4.2278
8.284 -88.0898 4.1935
8.3873 -88.0953 4.1445
8.4903 -88.1028 4.0813
8.5935 -88.109 4.0269
8.6969 -88.1139 3.983
8.8004 -88.1187 3.939
-14.6102 -88.6185 3.1171
-14.491 -88.5976 3.2593
-14.3746 -88.5803 3.375
-14.2584 -88.563 3.4901
-14.1437 -88.5477 3.5918
-14.032 -88.5363 3.664
-13.9231 -88.5287 3.7092
-13.8152 -88.5225 3.7441
-13.7081 -88.5173 3.7726
-13.6014 -88.5127 3.7959
-13.4947 -88.5079 3.8207
-13.3874 -88.5023 3.8511
-13.2794 -88.4957 3.889
-13.1701 -88.4873 3.9402
-13.06 -88.4777 4.0001
-12.9508 -88.4692 4.0517
-12.8431 -88.4629 4.0878
-12.7359 -88.4572 4.1196
-12.6282 -88.4508 4.1562
-12.5208 -88.4446 4.1912
-12.4141 -88.4395 4.2181
-12.3077 -88.435 4.2415
-12.2014 -88.4304 4.2648
-12.0955 -88.4263 4.2848
-11.9902 -88.4231 4.2978
-11.8854 -88.4208 4.3053
-11.7804 -88.418 4.3155
-11.6743 -88.4136 4.3378
-11.5673 -88.4078 4.3697
-11.4607 -88.4026 4.3979
-11.355 -88.3988 4.4157
-11.2499 -88.3957 4.4286
-11.1447 -88.3925 4.4417
-11.0396 -88.3895 4.454
-10.9346 -88.3867 4.4649
-10.8296 -88.3837 4.4766
-10.7245 -88.3807 4.489
-10.6195 -88.3778 4.5003
-10.5147 -88.3751 4.5097
-10.4096 -88.3721 4.5223
-10.3037 -88.3676 4.5451
-10.197 -88.362 4.5761
-10.0908 -88.357 4.6028
-9.9857 -88.3538 4.6164
-9.8814 -88.3518 4.6212
-9.777 -88.3497 4.6265
-9.6726 -88.3476 4.6321
-9.5689 -88.3466 4.6297
-9.4656 -88.3462 4.623
-9.3615 -88.3447 4.6245
-9.2566 -88.3416 4.6372
-9.1509 -88.3374 4.6584
-9.0452 -88.3329 4.6812
-8.9405 -88.3303 4.691
-8.8369 -88.3295 4.687
-8.7334 -88.3288 4.6826
-8.6298 -88.3279 4.6793
-8.5267 -88.3279 4.6696
-8.4241 -88.3287 4.6541
-8.3222 -88.3308 4.6295
-8.2215 -88.335 4.5895
-8.1214 -88.3403 4.541
-8.0214 -88.3458 4.4914
-7.9209 -88.3506 4.4469
-7.8188 -88.3525 4.4235
-7.7142 -88.3501 4.4315
-7.6084 -88.3456 4.4546
-7.5032 -88.342 4.4715
-7.3993 -88.3407 4.4712
-7.296 -88.3406 4.4624
-7.1924 -88.3399 4.4585
-7.0878 -88.3375 4.4665
-6.9822 -88.3332 4.4882
-6.8763 -88.3281 4.5157
-6.7706 -88.3236 4.5391
-6.6653 -88.3197 4.5583
-6.5599 -88.3156 4.5787
-6.4545 -88.3115 4.5991
-6.3495 -88.308 4.6153
-6.2447 -88.305 4.6274
-6.1401 -88.3023 4.6374
-6.0355 -88.2996 4.6481
-5.9307 -88.2965 4.6609
-5.8261 -88.2938 4.6712
-5.7221 -88.2922 4.6739
-5.6185 -88.2914 4.6702
-5.5151 -88.291 4.6636
-5.4116 -88.2904 4.6586
-5.3077 -88.2889 4.6602
-5.2032 -88.2865 4.6685
-5.0985 -88.2834 4.6815
-4.9935 -88.2798 4.6985
-4.8884 -88.2758 4.7181
-4.7832 -88.2718 4.7381
-4.6783 -88.2682 4.7553
-4.5737 -88.2653 4.7671
-4.4694 -88.2629 4.7752
-4.3651 -88.2606 4.7823
-4.2609 -88.2585 4.7885
-4.1566 -88.2561 4.7969
-4.0518 -88.2526 4.813
-3.947 -88.2492 4.8288
-3.8431 -88.2477 4.8306
-3.7403 -88.2485 4.8152
-3.6385 -88.2515 4.7842
-3.5372 -88.2559 4.7429
-3.436 -88.2604 4.7007
-3.3344 -88.2642 4.6643
-3.232 -88.2662 4.6402
-3.1283 -88.2651 4.6388
-3.0228 -88.2601 4.6661
-2.9164 -88.2529 4.7093
-2.8101 -88.246 4.7508
-2.7048 -88.2411 4.7776
-2.6001 -88.2378 4.7924
-2.4958 -88.2352 4.8018
-2.3921 -88.2342 4.8
-2.2892 -88.2349 4.7859
-2.1863 -88.2359 4.7693
-2.0832 -88.2363 4.7576
-1.9799 -88.2363 4.7484
-1.8766 -88.2363 4.739
-1.7735 -88.2366 4.7279
-1.6706 -88.2377 4.7112
-1.568 -88.2395 4.6891
-1.4649 -88.2402 4.6747
-1.3609 -88.2384 4.6788
-1.2564 -88.2353 4.6919
-1.1523 -88.2335 4.6965
-1.0491 -88.2339 4.6846
-0.9463 -88.2352 4.6657
-0.8428 -88.2348 4.6594
-0.738 -88.231 4.6786
-0.6324 -88.225 4.7134
-0.5271 -88.2196 4.7436
-0.4225 -88.2161 4.7603
-0.3182 -88.2136 4.7698
-0.2139 -88.2106 4.7822
-0.1094 -88.2076 4.7952
-0.0055 -88.2058 4.7996
0.0983 -88.2045 4.8
0.2025 -88.2021 4.8089
0.3069 -88.1989 4.8231
0.4112 -88.1962 4.8336
0.5152 -88.1941 4.8405
0.6193 -88.1919 4.8477
0.7233 -88.1897 4.8544
0.8272 -88.1882 4.8567
0.9311 -88.1864 4.8606
1.0353 -88.1838 4.871
1.1394 -88.1815 4.8789
1.2432 -88.1798 4.8821
1.3473 -88.1775 4.8902
1.4514 -88.175 4.8997
1.5551 -88.174 4.8986
1.6582 -88.1747 4.8843
1.7611 -88.1764 4.8635
1.8642 -88.1773 4.8474
1.9676 -88.1772 4.84
2.071 -88.1771 4.832
2.1742 -88.1778 4.8174
2.2771 -88.1797 4.7949
2.3794 -88.1836 4.7575
2.4806 -88.1914 4.6924
2.5816 -88.2003 4.6185
2.6833 -88.2067 4.5628
2.786 -88.2098 4.5315
2.8891 -88.2113 4.5116
2.9922 -88.2129 4.4914
3.0952 -88.2152 4.466
3.198 -88.218 4.4364
3.3009 -88.2209 4.4066
3.4038 -88.2236 4.3779
3.5067 -88.2264 4.3487
3.6096 -88.2294 4.3187
3.7126 -88.2318 4.2923
3.8162 -88.2321 4.2815
3.9203 -88.2305 4.2843
4.0242 -88.2297 4.2814
4.1278 -88.23 4.2704
4.2315 -88.2297 4.264
4.3353 -88.2293 4.2585
4.4387 -88.2307 4.2393
4.5419 -88.233 4.2139
4.6454 -88.234 4.1985
4.7492 -88.2339 4.1904
4.8529 -88.2338 4.1826
4.9568 -88.2333 4.1779
5.061 -88.2312 4.1842
5.1656 -88.227 4.2064
5.2704 -88.222 4.2346
5.3748 -88.2188 4.2496
5.4788 -88.2173 4.252
5.5828 -88.2161 4.2521
5.6865 -88.2164 4.2413
5.7898 -88.2188 4.2151
5.8932 -88.2209 4.1914
5.9968 -88.2216 4.1773
6.1006 -88.2218 4.168
6.2044 -88.2215 4.1617
6.3083 -88.2213 4.1542
6.4121 -88.2213 4.146
6.5162 -88.2195 4.1504
6.6209 -88.2141 4.1819
6.726 -88.206 4.2322
6.831 -88.1987 4.2777
6.9355 -88.1944 4.3001
7.0396 -88.1925 4.3061
7.1437 -88.1904 4.313
7.2478 -88.1877 4.3239
7.3519 -88.186 4.328
7.4556 -88.1862 4.3182
7.5592 -88.1874 4.3015
7.6631 -88.1873 4.2938
7.7671 -88.1852 4.3006
7.8712 -88.1835 4.3047
7.9748 -88.1846 4.288
8.0783 -88.1875 4.2588
8.1818 -88.1899 4.2331
8.2854 -88.1921 4.2084
8.3886 -88.1975 4.1602
8.4915 -88.2069 4.0831
8.5944 -88.2154 4.013
8.698 -88.2194 3.975
8.8014 -88.2248 3.9276
-14.7162 -88.7278 3.0948
-14.598 -88.7083 3.226
-14.4829 -88.6926 3.3293
-14.3667 -88.6754 3.4437
-14.2513 -88.6593 3.5507
-14.1376 -88.6454 3.6416
-14.0269 -88.6353 3.7044
-13.9188 -88.6288 3.7415
-13.8117 -88.6236 3.7697
-13.705 -88.6189 3.793
-13.5988 -88.6149 3.8125
-13.492 -88.61 3.8383
-13.3846 -88.6043 3.8695
-13.2772 -88.5985 3.901
-13.1692 -88.5918 3.9398
-13.0604 -88.5839 3.987
-12.9522 -88.577 4.0271
-12.8454 -88.5719 4.0547
-12.7386 -88.5668 4.0814
-12.6314 -88.5611 4.1132
-12.5244 -88.5556 4.1433
-12.4178 -88.5507 4.169
-12.3111 -88.5456 4.1955
-12.2044 -88.5404 4.2233
-12.0981 -88.5358 4.2468
-11.9925 -88.5322 4.263
-11.8873 -88.5293 4.2745
-11.7819 -88.526 4.2887
-11.6756 -88.5213 4.3129
-11.5687 -88.5157 4.3439
-11.4622 -88.5106 4.3712
-11.3564 -88.5066 4.3898
-11.2511 -88.5033 4.404
-11.1458 -88.5 4.4182
-11.0405 -88.4967 4.4323
-10.9354 -88.4936 4.4454
-10.8301 -88.4903 4.4598
-10.7246 -88.4867 4.4761
-10.6193 -88.4833 4.4909
-10.5142 -88.4801 4.5039
-10.4088 -88.4765 4.5208
-10.3026 -88.4717 4.5458
-10.1963 -88.4666 4.5728
-10.0908 -88.4627 4.5918
-9.9862 -88.4603 4.5991
-9.8822 -88.4589 4.5999
-9.7781 -88.4573 4.6017
-9.6739 -88.4554 4.6059
-9.5699 -88.454 4.6064
-9.4662 -88.4531 4.6038
-9.362 -88.4513 4.6068
-9.257 -88.4481 4.6205
-9.1512 -88.4436 4.6433
-9.0454 -88.4391 4.6664
-8.9408 -88.4367 4.6746
-8.8374 -88.4361 4.6688
-8.7341 -88.4357 4.6625
-8.6308 -88.4355 4.6545
-8.5283 -88.4364 4.6381
-8.4259 -88.4377 4.619
-8.3237 -88.4394 4.5975
-8.2226 -88.4428 4.5628
-8.1225 -88.4482 4.5141
-8.0228 -88.4544 4.4599
-7.9225 -88.4594 4.4141
-7.82 -88.4606 4.3956
-7.715 -88.4575 4.4088
-7.609 -88.4527 4.434
-7.504 -88.4494 4.4483
-7.4002 -88.4485 4.4457
-7.2968 -88.4481 4.439
-7.1927 -88.4466 4.4405
-7.0878 -88.4435 4.4537
-6.982 -88.4389 4.4777
-6.876 -88.4337 4.5054
-6.7704 -88.4293 4.5281
-6.665 -88.4252 4.5489
-6.5594 -88.4207 4.5721
-6.4539 -88.4164 4.5933
-6.3488 -88.4128 4.6101
-6.244 -88.4097 4.6232
-6.1395 -88.4072 4.6323
-6.035 -88.4048 4.6407
-5.9304 -88.4019 4.6518
-5.8258 -88.3994 4.661
-5.7219 -88.3979 4.6627
-5.6183 -88.3971 4.6591
-5.5146 -88.3961 4.6565
-5.4104 -88.3942 4.661
-5.306 -88.3918 4.6696
-5.2016 -88.3895 4.677
-5.0972 -88.387 4.6859
-4.9925 -88.3838 4.6992
-4.8875 -88.3803 4.7158
-4.7826 -88.3766 4.7331
-4.6778 -88.3734 4.7474
-4.5735 -88.3711 4.7546
-4.4693 -88.3691 4.76
-4.3648 -88.3664 4.7707
-4.2604 -88.3636 4.7813
-4.156 -88.3612 4.7899
-4.0514 -88.358 4.8035
-3.9469 -88.3552 4.8146
-3.8435 -88.3549 4.8081
-3.7413 -88.3571 4.7826
-3.6401 -88.3615 4.7417
-3.5392 -88.3667 4.6941
-3.4379 -88.3712 4.6526
-3.3356 -88.3733 4.628
-3.2319 -88.3725 4.6243
-3.1268 -88.3684 4.6456
-3.0205 -88.3614 4.6871
-2.9138 -88.3534 4.736
-2.8077 -88.3469 4.774
-2.7033 -88.3441 4.7856
-2.5995 -88.3428 4.7857
-2.4954 -88.3408 4.7915
-2.3913 -88.3388 4.7962
-2.288 -88.3388 4.7879
-2.1851 -88.3396 4.7729
-2.0821 -88.3402 4.759
-1.9789 -88.3405 4.7479
-1.8756 -88.3406 4.7382
-1.7725 -88.3409 4.727
-1.6695 -88.3418 4.7115
-1.5665 -88.3426 4.6961
-1.4629 -88.3418 4.6929
-1.3586 -88.3393 4.7025
-1.2543 -88.3368 4.7114
-1.1508 -88.3364 4.7055
-1.0482 -88.3383 4.6821
-0.9456 -88.3405 4.6577
-0.8421 -88.34 4.6519
-0.7373 -88.3361 4.6716
-0.6316 -88.3298 4.7083
-0.526 -88.3235 4.7452
-0.4208 -88.3186 4.7724
-0.316 -88.3145 4.7931
-0.2113 -88.3105 4.8128
-0.1069 -88.3074 4.8268
-0.003 -88.3058 4.8291
0.1007 -88.3048 4.8275
0.2046 -88.3031 4.8315
0.3087 -88.3009 4.8382
0.4126 -88.2991 4.8424
