53.3808 -7.2729 5.8444
53.4882 -7.2679 5.827
53.5924 -7.2664 5.83
53.6952 -7.2664 5.8417
53.8001 -7.2642 5.8403
53.9073 -7.2595 5.8246
54.0137 -7.2557 5.8142
54.1184 -7.2537 5.8142
54.224 -7.2506 5.8082
54.3301 -7.2472 5.8
54.4335 -7.2467 5.8085
54.5337 -7.2494 5.8359
54.6337 -7.2525 5.8654
54.7346 -7.2546 5.889
54.8361 -7.2561 5.9088
54.9387 -7.2563 5.9217
55.0416 -7.2561 5.9323
55.1423 -7.2584 5.9568
55.2405 -7.2633 5.9965
55.3383 -7.2686 6.0386
55.4377 -7.2721 6.0708
55.54 -7.2726 6.0849
55.6445 -7.2707 6.0856
55.7486 -7.2693 6.089
55.8506 -7.2701 6.1053
55.9519 -7.2716 6.1257
56.055 -7.2711 6.1346
56.1606 -7.2682 6.1292
56.267 -7.2644 6.1191
56.3741 -7.2598 6.1045
56.4839 -7.2525 6.0741
56.5967 -7.2422 6.0263
56.7109 -7.2305 5.9704
56.8257 -7.2182 5.9114
56.9392 -7.2073 5.8603
57.0482 -7.2011 5.8361
57.1532 -7.1988 5.8346
57.257 -7.1978 5.8408
57.3595 -7.1982 5.8545
57.4607 -7.1997 5.8753
57.5627 -7.2006 5.8919
57.6663 -7.1998 5.8988
57.7712 -7.1976 5.8983
57.884 -7.1876 5.8524
58.0562 -7.1186 5.4667
58.2523 -7.026 4.9458
58.4586 -6.9238 4.3694
58.6392 -6.8474 3.9418
58.7799 -6.8107 3.7427
58.9233 -6.7716 3.5295
44.5713 -7.4418 5.2591
44.6595 -7.4629 5.3924
44.7511 -7.4791 5.4971
44.8487 -7.4867 5.5522
44.9484 -7.4915 5.5912
45.0488 -7.4951 5.6232
45.1498 -7.498 5.6509
45.2511 -7.5004 5.6756
45.353 -7.502 5.6963
45.4554 -7.5028 5.7117
45.5582 -7.5031 5.7248
45.661 -7.5034 5.7373
45.7639 -7.5035 5.7491
45.8666 -7.504 5.7628
45.9688 -7.505 5.7801
46.0716 -7.5052 5.7925
46.177 -7.502 5.7847
46.2851 -7.4952 5.7567
46.3944 -7.4869 5.7192
46.5046 -7.4773 5.675
46.6145 -7.4683 5.6338
46.7229 -7.4612 5.6041
46.8305 -7.4552 5.5801
46.9379 -7.4495 5.5584
47.0442 -7.4453 5.5453
47.1486 -7.4436 5.5464
47.2511 -7.4443 5.5615
47.3526 -7.4462 5.5841
47.4535 -7.449 5.6113
47.5545 -7.4517 5.638
47.6563 -7.4532 5.6578
47.7586 -7.4542 5.6747
47.8602 -7.4559 5.6959
47.9612 -7.4584 5.7217
48.0613 -7.4622 5.7547
48.1598 -7.4678 5.7983
48.2579 -7.4739 5.8451
48.357 -7.4786 5.8836
48.4572 -7.482 5.9146
48.5573 -7.4856 5.9461
48.6577 -7.4887 5.9753
48.76 -7.4894 5.9907
48.8633 -7.4888 5.9989
48.9654 -7.4897 6.015
49.0672 -7.4911 6.0343
49.1701 -7.491 6.0452
49.2745 -7.4891 6.0454
49.3822 -7.4831 6.0217
49.4947 -7.4713 5.965
49.6086 -7.4579 5.8988
49.7212 -7.4462 5.8424
49.8321 -7.4365 5.7976
49.9415 -7.4287 5.7636
50.0485 -7.4239 5.7472
50.1527 -7.4223 5.7493
50.2576 -7.42 5.747
50.3642 -7.4157 5.7337
50.4685 -7.414 5.7351
50.57 -7.4157 5.7564
50.6716 -7.4174 5.7771
50.7742 -7.4177 5.7908
50.8771 -7.4177 5.8021
50.9807 -7.417 5.8089
51.0838 -7.4167 5.8185
51.1856 -7.418 5.8378
51.2859 -7.421 5.8664
51.3848 -7.4256 5.9045
51.4823 -7.4317 5.9513
51.5794 -7.4384 6.0012
51.6768 -7.4447 6.0488
51.7753 -7.4496 6.0889
51.8755 -7.4525 6.1168
51.9767 -7.4543 6.139
52.0775 -7.4565 6.1631
52.1786 -7.4585 6.1858
52.2803 -7.4595 6.2033
52.3831 -7.4595 6.2144
52.4876 -7.4575 6.2146
52.5938 -7.4537 6.2036
52.7007 -7.449 6.188
52.8082 -7.4436 6.1685
52.9182 -7.4355 6.1331
53.0325 -7.4227 6.0705
53.15 -7.4063 5.9872
53.2669 -7.3908 5.9089
53.3802 -7.3792 5.8535
53.4899 -7.3716 5.8214
53.5949 -7.3693 5.8192
53.6975 -7.3696 5.8326
53.8022 -7.3675 5.8322
53.9097 -7.3626 5.8151
54.0154 -7.3595 5.8085
54.1185 -7.3591 5.8183
54.223 -7.3574 5.8197
54.3288 -7.3542 5.8128
54.4329 -7.3529 5.817
54.5345 -7.3543 5.8365
54.6353 -7.3565 5.8607
54.7369 -7.3577 5.8795
54.8398 -7.3577 5.891
54.9431 -7.3572 5.8996
55.0453 -7.3578 5.9146
55.1451 -7.361 5.9448
55.2427 -7.3666 5.9884
55.3397 -7.3726 6.035
55.4388 -7.3765 6.0688
55.5423 -7.3756 6.0756
55.6478 -7.3727 6.0705
55.751 -7.3723 6.0797
55.8519 -7.3742 6.1021
55.9533 -7.3756 6.1218
56.0565 -7.3751 6.1304
56.1609 -7.3733 6.1318
56.266 -7.3709 6.1297
56.3722 -7.3673 6.1207
56.4806 -7.3614 6.0984
56.591 -7.3536 6.0647
56.7029 -7.3442 6.0223
56.8174 -7.3322 5.9648
56.9328 -7.3194 5.9026
57.0446 -7.3102 5.8614
57.1518 -7.3059 5.8479
57.2556 -7.3048 5.8533
57.3572 -7.3061 5.8725
57.458 -7.3081 5.8956
57.5604 -7.3085 5.9096
57.6647 -7.3069 5.9125
57.7711 -7.3033 5.9035
57.8876 -7.2897 5.8365
58.0551 -7.2254 5.4774
58.2287 -7.1553 5.0852
58.4427 -7.0456 4.4644
58.6334 -6.9595 3.9795
58.7776 -6.9195 3.7605
58.9226 -6.8787 3.5375
59.072 -6.834 3.2916
59.2071 -6.8033 3.1266
44.5634 -7.5591 5.331
44.6535 -7.5774 5.4488
44.7508 -7.5855 5.5067
44.85 -7.591 5.55
44.95 -7.5953 5.5858
45.0512 -7.5979 5.6117
45.1534 -7.5991 5.63
45.2555 -7.6003 5.6479
45.3576 -7.6016 5.6666
45.4597 -7.6029 5.6855
45.5617 -7.6043 5.7044
45.6643 -7.6049 5.7191
45.7674 -7.6048 5.7294
45.8702 -7.6051 5.7422
45.9723 -7.6063 5.7603
46.0744 -7.6075 5.7783
46.1776 -7.6071 5.7873
46.2834 -7.6035 5.7773
46.3922 -7.5957 5.7435
46.5027 -7.5857 5.6966
46.613 -7.5761 5.6519
46.7224 -7.5677 5.6142
46.8311 -7.5604 5.5826
46.9382 -7.5551 5.563
47.0437 -7.5519 5.5559
47.1481 -7.5502 5.5569
47.2514 -7.5498 5.566
47.3535 -7.551 5.5842
47.4551 -7.553 5.6067
47.557 -7.5543 5.6259
47.66 -7.5544 5.6376
47.7629 -7.5546 5.6498
47.8645 -7.5564 5.6714
47.9649 -7.5597 5.7017
48.0643 -7.5642 5.7392
48.1627 -7.5699 5.7837
48.2611 -7.5756 5.828
48.3607 -7.5798 5.8635
48.461 -7.583 5.8935
48.5608 -7.587 5.9274
48.6605 -7.5909 5.9615
48.7623 -7.5922 5.9805
48.8656 -7.5917 5.9887
48.9679 -7.5923 6.0035
49.0692 -7.5943 6.0263
49.1704 -7.5963 6.0492
49.2726 -7.5971 6.0649
49.3784 -7.5934 6.0547
49.4897 -7.5831 6.0066
49.6038 -7.5695 5.9388
49.7176 -7.5562 5.8732
49.8299 -7.545 5.8193
49.9412 -7.5349 5.7719
50.0506 -7.5271 5.7382
50.1554 -7.5249 5.7369
50.2584 -7.5249 5.7478
50.363 -7.5229 5.7478
50.4675 -7.521 5.7481
50.5709 -7.5204 5.7563
50.6743 -7.5199 5.7643
50.7764 -7.5209 5.7816
50.8775 -7.523 5.8053
50.9808 -7.5225 5.814
51.0851 -7.5209 5.816
51.1877 -7.5213 5.8294
51.2886 -7.5236 5.854
51.3878 -7.5278 5.8901
51.4853 -7.534 5.9373
51.5825 -7.5405 5.9866
51.6799 -7.5466 6.0335
51.7779 -7.5522 6.077
51.8768 -7.5566 6.1141
51.9769 -7.5597 6.1431
52.0781 -7.5615 6.165
52.1799 -7.5625 6.1825
52.2817 -7.5635 6.1999
52.3838 -7.5642 6.2153
52.4878 -7.5629 6.2189
52.5939 -7.5591 6.2084
52.7008 -7.5544 6.1929
52.8076 -7.5498 6.1776
52.9158 -7.5437 6.1539
53.0281 -7.5331 6.1037
53.1445 -7.518 6.0281
53.262 -7.5018 5.9454
53.379 -7.4862 5.8667
53.4924 -7.4745 5.8106
53.5984 -7.4711 5.8022
53.7004 -7.4721 5.8198
53.8036 -7.4718 5.8291
53.9096 -7.4683 5.8204
54.0153 -7.4652 5.8144
54.1192 -7.4641 5.8194
54.2238 -7.4622 5.8199
54.329 -7.4596 5.8167
54.4328 -7.4587 5.8227
54.5351 -7.4592 5.8376
54.6371 -7.4602 5.8547
54.7395 -7.4606 5.8685
54.8427 -7.4603 5.8784
54.9454 -7.4604 5.8904
55.0467 -7.4619 5.9111
55.1462 -7.4655 5.9432
55.2441 -7.4706 5.9848
55.3418 -7.476 6.0272
55.4421 -7.4785 6.0533
55.5472 -7.476 6.0508
55.6526 -7.4732 6.0463
55.7545 -7.4742 6.0636
55.855 -7.4765 6.0885
55.9568 -7.4774 6.1055
56.0599 -7.4771 6.1152
56.1633 -7.4764 6.1227
56.2668 -7.4755 6.1292
56.3717 -7.4733 6.128
56.4789 -7.4686 6.113
56.588 -7.4621 6.087
56.6987 -7.4541 6.052
56.8123 -7.443 5.9997
56.9278 -7.4301 5.9368
57.0411 -7.4194 5.8864
57.1499 -7.4133 5.8633
57.2539 -7.4121 5.8681
57.3547 -7.4142 5.8916
57.4553 -7.4163 5.9155
57.5583 -7.4162 5.9265
57.6634 -7.4138 5.9247
57.7713 -7.4087 5.9068
57.8902 -7.3927 5.8259
58.0383 -7.3478 5.5783
58.4197 -7.1745 4.6002
58.6181 -7.0809 4.0707
58.7571 -7.046 3.8809
58.8999 -7.0075 3.6707
59.0475 -6.9646 3.4344
59.1689 -6.9473 3.3465
59.2997 -6.921 3.2062
44.5586 -7.672 5.3783
44.6534 -7.6837 5.4574
44.7522 -7.6896 5.503
44.8518 -7.6945 5.5428
44.9518 -7.6988 5.5785
45.0535 -7.7006 5.6004
45.1564 -7.7009 5.613
45.2591 -7.7014 5.6269
45.3617 -7.702 5.6419
45.4642 -7.7027 5.657
45.5664 -7.7039 5.6749
45.6686 -7.7051 5.6928
45.771 -7.7059 5.7086
45.8732 -7.7069 5.7257
45.9752 -7.7083 5.7449
46.0772 -7.7096 5.7639
46.1797 -7.7103 5.7786
46.2843 -7.7081 5.7773
46.392 -7.7018 5.7515
46.5016 -7.6931 5.7119
46.612 -7.6834 5.6666
46.7231 -7.6728 5.6165
46.8329 -7.664 5.5762
46.9395 -7.6594 5.5606
47.0436 -7.658 5.5634
47.147 -7.6576 5.5724
47.2502 -7.6574 5.5822
47.3532 -7.6574 5.5937
47.4561 -7.6576 5.6058
47.5597 -7.6568 5.6125
47.664 -7.6551 5.6142
47.7674 -7.6547 5.623
47.8687 -7.6569 5.647
47.9688 -7.6606 5.6796
48.0682 -7.6651 5.717
48.1667 -7.6707 5.7608
48.265 -7.6765 5.8059
48.3645 -7.6808 5.8421
48.4649 -7.684 5.8722
48.5642 -7.6884 5.909
48.6629 -7.6936 5.9506
48.7634 -7.6966 5.9789
48.8662 -7.6966 5.9903
48.9693 -7.6964 6.0005
49.071 -7.6977 6.0194
49.1718 -7.7002 6.0453
49.2729 -7.7024 6.0691
49.3766 -7.7013 6.0739
49.4855 -7.6939 6.0422
49.5989 -7.6811 5.9792
49.7131 -7.6674 5.9111
49.8258 -7.6556 5.8539
49.9384 -7.6439 5.7973
50.0505 -7.633 5.7452
50.1569 -7.6289 5.7324
50.2595 -7.6293 5.7461
50.3631 -7.6285 5.753
50.4682 -7.6259 5.7494
50.5735 -7.6232 5.7447
50.6774 -7.6221 5.7496
50.7779 -7.6248 5.7769
50.8782 -7.6279 5.8064
50.982 -7.6268 5.8113
51.0873 -7.6241 5.807
51.191 -7.6231 5.8127
51.2927 -7.6245 5.8322
51.3915 -7.6292 5.8709
51.4883 -7.6362 5.923
51.5853 -7.6429 5.9735
51.683 -7.6487 6.0188
51.781 -7.6542 6.062
51.8792 -7.6594 6.1036
51.9785 -7.6634 6.1382
52.0798 -7.665 6.159
52.1823 -7.6654 6.1726
52.284 -7.6665 6.1908
52.3857 -7.6676 6.2086
52.4899 -7.666 6.2106
52.5965 -7.6616 6.1968
52.7037 -7.6567 6.1795
52.8101 -7.6526 6.167
52.9162 -7.6488 6.1567
53.0249 -7.6422 6.1301
53.1387 -7.6301 6.0708
53.2564 -7.6136 5.9866
53.3759 -7.5952 5.8915
53.4923 -7.5804 5.817
53.6 -7.575 5.7975
53.702 -7.576 5.8146
53.8038 -7.5771 5.8328
53.9078 -7.5758 5.8369
54.0135 -7.5728 5.8308
54.1192 -7.5697 5.8245
54.2249 -7.5667 5.8185
54.33 -7.5642 5.8157
54.4336 -7.5634 5.8227
54.5361 -7.5638 5.8367
54.6385 -7.5643 5.8511
54.7412 -7.5644 5.8634
54.8439 -7.5646 5.8758
54.9457 -7.5656 5.8933
55.0465 -7.5678 5.9177
55.146 -7.5712 5.949
55.2448 -7.5754 5.9854
55.3443 -7.5789 6.0169
55.4469 -7.5791 6.0295
55.552 -7.5765 6.0265
55.6561 -7.5752 6.0304
55.7574 -7.5767 6.0509
55.8584 -7.5785 6.0727
55.9604 -7.5792 6.0887
56.0629 -7.5794 6.1017
56.1654 -7.5797 6.115
56.2679 -7.5799 6.1277
56.3721 -7.5784 6.1307
56.4792 -7.5738 6.116
56.5886 -7.567 6.0882
56.6993 -7.5589 6.0527
56.8114 -7.5494 6.0095
56.9249 -7.5385 5.9579
57.0378 -7.5283 5.9106
57.147 -7.5218 5.8849
57.2516 -7.52 5.8857
57.3531 -7.5213 5.905
57.4544 -7.5228 5.9254
57.5574 -7.5225 5.9358
57.6621 -7.5206 5.9363
57.7694 -7.5161 5.9222
57.8835 -7.5048 5.8686
58.008 -7.4834 5.7563
58.3902 -7.3096 4.7727
58.5955 -7.2094 4.204
58.7445 -7.1647 3.9569
58.8842 -7.1294 3.7643
59.0186 -7.0993 3.6018
59.1464 -7.0758 3.4778
59.2813 -7.0455 3.3144
59.4225 -7.0093 3.1164
44.5589 -7.7777 5.3837
44.657 -7.7847 5.4358
44.7547 -7.7923 5.4909
44.8539 -7.7977 5.5334
44.9537 -7.8022 5.571
45.0555 -7.804 5.5924
45.1586 -7.804 5.6034
45.2615 -7.804 5.615
45.3645 -7.8041 5.6265
45.4678 -7.8038 5.6361
45.5706 -7.8041 5.6487
45.6727 -7.8054 5.6675
45.7743 -7.8073 5.6894
45.8763 -7.8087 5.709
45.9788 -7.8094 5.7239
46.0814 -7.8099 5.7383
46.1838 -7.8107 5.754
46.2873 -7.81 5.7609
46.3932 -7.8061 5.7494
46.5014 -7.7993 5.7212
46.6116 -7.7898 5.6765
46.7234 -7.7783 5.621
46.8337 -7.7688 5.5767
46.9402 -7.7644 5.5619
47.0435 -7.764 5.5711
47.1458 -7.7651 5.5882
47.2486 -7.7653 5.6006
47.3525 -7.7642 5.6058
47.4569 -7.7624 5.6066
47.5617 -7.7602 5.6049
47.6664 -7.7581 5.6037
47.7698 -7.7576 5.612
47.8715 -7.7592 5.6328
47.9723 -7.7619 5.6599
48.0724 -7.7657 5.6929
48.1711 -7.771 5.7354
48.2693 -7.777 5.7814
48.3684 -7.7817 5.8203
48.4683 -7.7855 5.8534
48.5673 -7.7903 5.8929
48.6654 -7.7963 5.939
48.7647 -7.8007 5.9762
48.8667 -7.8018 5.9937
48.9698 -7.8015 6.0032
49.072 -7.8023 6.0191
49.1731 -7.8043 6.0421
49.2742 -7.8064 6.0659
49.3767 -7.8068 6.0792
49.4832 -7.8023 6.0648
49.5949 -7.7917 6.014
49.7084 -7.7788 5.9505
49.8211 -7.767 5.8929
49.9344 -7.7546 5.8319
50.0478 -7.742 5.7698
50.1564 -7.7353 5.7422
50.2601 -7.7344 5.7484
50.3639 -7.7333 5.7536
50.4696 -7.73 5.7455
50.5755 -7.7265 5.7367
50.6785 -7.7265 5.7477
50.7785 -7.7298 5.7787
50.88 -7.7315 5.7998
50.9849 -7.7291 5.7975
51.0906 -7.7259 5.79
51.1951 -7.7241 5.791
51.2968 -7.7254 5.8103
51.3949 -7.731 5.854
51.4912 -7.7385 5.9092
51.5884 -7.745 5.9583
51.6866 -7.7502 6.0005
51.785 -7.7553 6.0415
51.8831 -7.7605 6.0834
51.9821 -7.7648 6.1198
52.0833 -7.7666 6.1415
52.1856 -7.7672 6.1564
52.2867 -7.769 6.1784
52.388 -7.7706 6.199
52.4923 -7.7688 6.2006
52.5989 -7.7644 6.1863
52.7062 -7.7594 6.1686
52.8128 -7.7551 6.1552
52.9182 -7.7521 6.1491
53.0245 -7.7482 6.1381
53.1352 -7.7394 6.0984
53.2521 -7.7239 6.0194
53.3723 -7.7047 5.9196
53.4895 -7.689 5.8398
53.5986 -7.6822 5.8114
53.702 -7.6816 5.8196
53.8041 -7.6824 5.8359
53.9074 -7.682 5.845
54.0127 -7.6793 5.8409
54.1189 -7.6756 5.8313
54.2247 -7.6725 5.8246
54.3298 -7.6701 5.8224
54.4338 -7.6688 5.8266
54.5369 -7.6686 5.8369
54.6397 -7.6686 5.8484
54.7426 -7.6686 5.8599
54.8446 -7.6694 5.8762
54.9456 -7.6714 5.8993
55.0458 -7.674 5.9264
55.1457 -7.6771 5.956
55.2456 -7.6802 5.9856
55.347 -7.6816 6.0054
55.4506 -7.6807 6.012
55.5547 -7.6793 6.0155
55.6579 -7.6789 6.0246
55.7602 -7.6793 6.0389
55.8619 -7.6804 6.0568
55.9635 -7.6815 6.0749
56.0654 -7.6823 6.0914
56.1674 -7.6831 6.1077
56.2696 -7.6837 6.1226
56.3736 -7.6823 6.1264
56.4806 -7.6779 6.1125
56.5898 -7.6713 6.086
56.7003 -7.6634 6.0514
56.8116 -7.6547 6.0128
56.9229 -7.6461 5.9743
57.0336 -7.6381 5.9398
57.1423 -7.6321 5.917
57.2482 -7.629 5.9105
57.3518 -7.6282 5.9173
57.4546 -7.6281 5.929
57.5578 -7.6277 5.938
57.6618 -7.6264 5.9426
57.7679 -7.6232 5.9354
57.879 -7.6149 5.8991
57.9987 -7.5982 5.8139
58.1363 -7.5639 5.6266
58.3441 -7.4609 5.0403
58.53 -7.3797 4.5809
58.6989 -7.3156 4.2202
58.848 -7.271 3.9733
58.9937 -7.23 3.7472
59.1235 -7.2045 3.6111
59.2575 -7.1752 3.4528
59.3987 -7.1389 3.2542
44.56 -7.8823 5.3826
44.659 -7.8881 5.4273
44.7573 -7.8947 5.4774
44.8559 -7.9009 5.5246
44.9556 -7.9056 5.5634
45.0574 -7.9073 5.5843
45.1607 -7.907 5.5935
45.264 -7.9066 5.6027
45.3672 -7.9064 5.6127
45.4706 -7.906 5.6211
45.5736 -7.906 5.6325
45.6756 -7.9075 5.6521
45.777 -7.9096 5.6757
45.8795 -7.9104 5.6914
45.9832 -7.9094 5.6966
46.0866 -7.9088 5.7047
46.1886 -7.9102 5.724
46.2904 -7.9118 5.7445
46.394 -7.9109 5.7505
46.5008 -7.906 5.7327
46.6107 -7.8969 5.6906
46.7224 -7.8855 5.6353
46.8332 -7.8754 5.5875
46.9405 -7.87 5.5669
47.0437 -7.8697 5.5765
47.1453 -7.8715 5.5983
47.2481 -7.8719 5.6117
47.3528 -7.8698 5.6104
47.4581 -7.8669 5.6047
47.5627 -7.8648 5.6041
47.6667 -7.8636 5.608
47.7701 -7.863 5.6161
47.8728 -7.8634 5.6295
47.9749 -7.8646 5.648
48.0756 -7.8674 5.6758
48.1747 -7.8724 5.7159
48.2731 -7.878 5.76
48.3722 -7.8828 5.7992
48.4717 -7.887 5.8352
48.5707 -7.8919 5.875
48.669 -7.8976 5.9197
48.7679 -7.9024 5.9594
48.8688 -7.9049 5.9849
48.9708 -7.9059 6.0021
49.0726 -7.9072 6.0208
49.1742 -7.9086 6.0408
49.2759 -7.9101 6.0605
49.3781 -7.9107 6.0757
49.4833 -7.9079 6.0706
49.593 -7.8996 6.0336
49.7053 -7.8882 5.9784
49.8174 -7.8771 5.9246
49.9302 -7.8653 5.8671
50.0437 -7.8526 5.8043
50.1542 -7.8436 5.7632
50.2601 -7.84 5.7538
50.3652 -7.8375 5.7504
50.4716 -7.8334 5.7379
50.5775 -7.83 5.7291
50.6799 -7.8306 5.7441
50.7807 -7.8331 5.7702
50.8839 -7.8327 5.7794
50.9892 -7.8299 5.7746
51.0948 -7.8268 5.768
51.1993 -7.825 5.7685
51.301 -7.8264 5.7882
51.3989 -7.8321 5.8331
51.4951 -7.8397 5.8887
51.5923 -7.8461 5.938
51.6906 -7.8513 5.9797
51.7892 -7.8561 6.0193
51.8876 -7.861 6.0594
51.9866 -7.8653 6.0959
52.0872 -7.8678 6.122
52.1883 -7.8697 6.1441
52.2884 -7.8726 6.173
52.3891 -7.8748 6.1972
52.4929 -7.8736 6.2017
52.5992 -7.8697 6.1903
52.7064 -7.8647 6.1728
52.8137 -7.8596 6.1548
52.9204 -7.8552 6.1407
53.0269 -7.851 6.1277
53.1359 -7.8442 6.0993
53.2506 -7.8311 6.0345
53.3698 -7.8132 5.9413
53.4871 -7.7972 5.8601
53.5977 -7.7889 5.8229
53.703 -7.7862 5.8188
53.8066 -7.7853 5.8254
53.9099 -7.7849 5.8346
54.0136 -7.784 5.8409
54.1182 -7.782 5.8409
54.2231 -7.7799 5.8399
54.3281 -7.7775 5.8377
54.433 -7.7753 5.8365
54.5374 -7.7737 5.8387
54.6412 -7.7726 5.8441
54.7441 -7.7725 5.8554
54.8455 -7.7741 5.8759
54.9459 -7.7766 5.9025
55.046 -7.7795 5.9306
55.146 -7.7823 5.9591
55.2465 -7.7847 5.9848
55.3485 -7.7856 6.0013
55.4517 -7.7851 6.0102
55.5553 -7.7842 6.0167
55.6593 -7.7829 6.0205
55.7628 -7.7821 6.028
55.8646 -7.7831 6.0452
55.9661 -7.7843 6.0641
56.0682 -7.785 6.0797
56.17 -7.7859 6.0969
56.2717 -7.7869 6.1146
56.375 -7.7864 6.1229
56.4806 -7.7834 6.1174
56.5884 -7.7782 6.0985
56.6986 -7.7706 6.0662
56.81 -7.7619 6.0273
56.9204 -7.7542 5.994
57.0294 -7.7479 5.9691
57.1374 -7.7426 5.9503
57.2443 -7.7384 5.9378
57.35 -7.7355 5.9326
57.4546 -7.7337 5.9336
57.5587 -7.7323 5.9374
57.663 -7.7308 5.9403
57.7688 -7.7278 5.9347
57.8782 -7.7212 5.9082
57.9959 -7.7065 5.8344
58.1308 -7.675 5.6626
58.2918 -7.618 5.3427
58.4638 -7.5505 4.962
58.6419 -7.4774 4.5482
58.8105 -7.4138 4.1902
58.973 -7.3565 3.8685
59.0982 -7.3355 3.7584
59.236 -7.3025 3.5779
59.3773 -7.2662 3.3789
44.5671 -7.9785 5.3319
44.6626 -7.9891 5.4053
44.7605 -7.9963 5.4589
44.8586 -8.0032 5.5104
44.9581 -8.0081 5.5505
45.0599 -8.0099 5.5718
45.1634 -8.0093 5.5796
45.2672 -8.0083 5.5851
45.3706 -8.0079 5.5935
45.4736 -8.0079 5.6048
45.5761 -8.0087 5.6204
45.6778 -8.0105 5.642
45.7794 -8.0123 5.6641
45.8826 -8.0121 5.674
45.9873 -8.0099 5.6725
46.0912 -8.0087 5.6767
46.1927 -8.0107 5.6992
46.2929 -8.0144 5.7325
46.3943 -8.0165 5.7555
46.4996 -8.0133 5.7484
46.609 -8.0051 5.7111
46.7206 -7.9939 5.6567
46.8321 -7.9828 5.6031
46.9405 -7.9758 5.5731
47.0443 -7.9749 5.5792
47.1458 -7.9769 5.6019
47.2488 -7.9769 5.6135
47.3544 -7.9736 5.6052
47.4599 -7.9705 5.5981
47.5635 -7.9697 5.6049
47.6666 -7.9695 5.6151
47.7702 -7.9688 5.6224
47.8734 -7.9685 5.6318
47.976 -7.9691 5.6465
48.0773 -7.9711 5.6697
48.1772 -7.975 5.7038
48.2764 -7.9797 5.7427
48.3758 -7.9842 5.78
48.4753 -7.9883 5.8158
48.5746 -7.9929 5.8536
48.6736 -7.9976 5.8928
48.7732 -8.0017 5.9279
48.8734 -8.0049 5.958
48.9739 -8.0078 5.9866
49.0747 -8.0102 6.0119
49.1766 -8.0114 6.0304
49.2788 -8.0121 6.0456
49.3814 -8.0124 6.0585
49.4857 -8.0106 6.0595
49.5934 -8.0048 6.0368
49.7037 -7.9958 5.9958
49.8147 -7.986 5.9496
49.927 -7.9748 5.8956
50.0406 -7.962 5.8319
50.1526 -7.9512 5.7803
50.261 -7.9448 5.7538
50.3676 -7.9405 5.7401
50.4742 -7.9361 5.7258
50.5802 -7.9325 5.7165
50.6833 -7.9324 5.727
50.7854 -7.9333 5.7441
50.8891 -7.9324 5.75
50.9937 -7.9304 5.75
51.0984 -7.9283 5.749
51.2033 -7.9261 5.7475
51.3061 -7.9262 5.7596
51.4045 -7.9314 5.8014
51.5001 -7.9396 5.8613
51.5961 -7.9475 5.9185
51.6936 -7.9535 5.9651
51.7923 -7.9581 6.0039
51.8912 -7.9626 6.0414
51.9901 -7.9669 6.0784
52.0896 -7.9706 6.1115
52.1892 -7.9741 6.1436
52.2884 -7.9782 6.1786
52.3887 -7.9808 6.2057
52.4923 -7.9799 6.2115
52.5985 -7.976 6.2004
52.7056 -7.971 6.1831
52.8136 -7.9653 6.1607
52.9221 -7.9589 6.1349
53.0303 -7.9528 6.1111
53.1395 -7.9458 6.0815
53.2524 -7.9347 6.0282
53.3691 -7.9194 5.9507
53.4858 -7.9044 5.8741
53.5979 -7.8943 5.8266
53.7051 -7.8895 5.8105
53.8106 -7.8868 5.806
53.9139 -7.8862 5.8142
54.0151 -7.888 5.8364
54.1167 -7.8893 5.8557
54.2207 -7.888 5.86
54.3262 -7.8852 5.855
54.4321 -7.8819 5.8473
54.5378 -7.8789 5.8413
54.6422 -7.8772 5.8432
54.7444 -7.8778 5.8584
54.8454 -7.8798 5.8817
54.9463 -7.8818 5.9049
55.047 -7.8839 5.9291
55.147 -7.8869 5.9583
55.2469 -7.8899 5.9873
55.3484 -7.8912 6.0066
55.4511 -7.8912 6.0184
55.5549 -7.8901 6.024
55.6597 -7.888 6.023
55.7634 -7.887 6.0289
55.8653 -7.8879 6.046
55.9677 -7.8882 6.0596
56.0706 -7.888 6.07
56.1724 -7.889 6.0875
56.2733 -7.8908 6.1097
56.375 -7.8918 6.1272
56.4788 -7.8906 6.1323
56.5855 -7.8866 6.1205
56.6951 -7.8796 6.0917
56.8063 -7.8711 6.0533
56.917 -7.8631 6.0186
57.0259 -7.8569 5.9941
57.1338 -7.8517 5.9754
57.2415 -7.8468 5.9587
57.3484 -7.8426 5.9462
57.4542 -7.8395 5.9401
57.5593 -7.8373 5.9388
57.6643 -7.835 5.9375
57.7702 -7.8319 5.9309
57.8784 -7.8265 5.9113
57.9933 -7.8146 5.8537
58.1207 -7.7905 5.7248
58.2566 -7.7581 5.5479
58.4218 -7.6975 5.2057
58.6079 -7.6166 4.746
58.7879 -7.542 4.3227
58.9502 -7.4849 4.0016
59.0726 -7.4667 3.9072
59.2044 -7.4394 3.7598
59.3424 -7.4063 3.5788
59.4755 -7.3781 3.4262
44.573 -8.0764 5.2914
44.6699 -8.085 5.3535
44.7645 -8.0969 5.4343
44.8623 -8.1042 5.4884
44.9618 -8.1092 5.5287
45.063 -8.1116 5.5544
45.1662 -8.1115 5.5648
45.2703 -8.11 5.5673
45.3741 -8.1091 5.5731
45.4768 -8.1096 5.587
45.5787 -8.1111 5.6068
45.6803 -8.113 5.6294
45.7822 -8.1146 5.6501
45.8854 -8.1143 5.6593
45.9903 -8.1118 5.6559
46.0945 -8.1102 5.6579
46.196 -8.1123 5.6812
46.2955 -8.1168 5.7189
46.3959 -8.1203 5.7506
46.4996 -8.1193 5.7561
46.6075 -8.1129 5.7297
46.7182 -8.1028 5.6813
46.8301 -8.0913 5.6252
46.9397 -8.0828 5.5862
47.0445 -8.0805 5.5844
47.1466 -8.0817 5.6025
47.2504 -8.0807 5.6082
47.3565 -8.0768 5.5964
47.4614 -8.0743 5.5932
47.5641 -8.0748 5.607
47.6669 -8.075 5.6197
47.7705 -8.0742 5.6264
47.8739 -8.0738 5.6351
47.9766 -8.0741 5.6484
48.0789 -8.0751 5.6651
48.1802 -8.0771 5.6885
48.2803 -8.0806 5.7204
48.38 -8.0848 5.756
48.4794 -8.089 5.7925
48.5786 -8.0936 5.8309
48.6782 -8.0978 5.8664
48.7788 -8.1005 5.8939
48.8792 -8.1035 5.9231
48.9786 -8.1078 5.9593
49.0787 -8.1111 5.9902
49.1806 -8.1122 6.0083
49.2832 -8.1125 6.0214
49.3856 -8.113 6.0354
49.489 -8.1123 6.0428
49.5947 -8.1088 6.0337
49.7028 -8.1025 6.0077
49.8125 -8.0943 5.9712
49.9243 -8.0837 5.9202
50.038 -8.0708 5.8562
50.151 -8.0589 5.7979
50.2612 -8.0503 5.7587
50.369 -8.0446 5.7366
50.4759 -8.0399 5.7203
50.5825 -8.0355 5.7064
50.6871 -8.0337 5.7069
50.7902 -8.0335 5.7171
50.8936 -8.0328 5.7249
50.9969 -8.0324 5.7337
51.1006 -8.0315 5.7399
51.2065 -8.0281 5.7317
51.3116 -8.0256 5.7284
51.4103 -8.0304 5.7678
51.5044 -8.0404 5.838
51.5984 -8.0504 5.9085
51.6948 -8.0577 5.9629
51.7934 -8.0625 6.0023
51.8927 -8.0665 6.037
51.9918 -8.0706 6.073
52.0908 -8.0748 6.109
52.1896 -8.0792 6.1464
52.2882 -8.0838 6.185
52.3886 -8.0865 6.2121
52.4928 -8.0848 6.2139
52.5993 -8.0806 6.2007
52.7062 -8.0759 6.1849
52.814 -8.0703 6.1635
52.9231 -8.0632 6.1336
53.0325 -8.0559 6.1024
53.1426 -8.0479 6.0669
53.2551 -8.0372 6.0159
53.3699 -8.0242 5.9512
53.4846 -8.0113 5.8872
53.5965 -8.0015 5.8412
53.705 -7.9953 5.8165
53.8122 -7.9906 5.8009
53.9164 -7.9892 5.8039
54.0162 -7.9925 5.8349
54.1157 -7.996 5.8673
54.2189 -7.9956 5.8764
54.3248 -7.9923 5.8687
54.4315 -7.9882 5.8565
54.5379 -7.9844 5.8458
54.6423 -7.9826 5.8473
54.7439 -7.9839 5.8665
54.8449 -7.9858 5.8893
54.9472 -7.9864 5.9046
55.0492 -7.9872 5.9209
55.149 -7.9904 5.951
55.248 -7.9942 5.9854
55.3489 -7.9961 6.0082
55.4514 -7.9964 6.0214
55.5549 -7.9957 6.0289
55.6588 -7.9944 6.0332
55.7617 -7.9943 6.0443
55.8637 -7.9951 6.0605
55.9669 -7.9945 6.0688
56.0708 -7.9933 6.0737
56.1732 -7.9936 6.0874
56.2741 -7.9955 6.1099
56.375 -7.9973 6.1323
56.478 -7.997 6.1422
56.5839 -7.9937 6.1347
56.6922 -7.988 6.1131
56.8025 -7.9804 6.0805
56.9134 -7.9722 6.0442
57.0233 -7.965 6.0139
57.1321 -7.9589 5.9904
57.2402 -7.9536 5.971
57.3474 -7.9491 5.9565
57.4537 -7.9456 5.948
57.5589 -7.9431 5.9453
57.6641 -7.9407 5.9428
57.7705 -7.9371 5.9338
57.8786 -7.9319 5.9149
57.9913 -7.9222 5.87
58.1145 -7.9021 5.7646
58.2487 -7.8716 5.5977
58.4129 -7.8119 5.2607
58.6013 -7.729 4.7878
58.7706 -7.665 4.4253
58.9212 -7.6192 4.1698
59.0462 -7.5985 4.0603
59.1756 -7.5735 3.9263
59.3056 -7.5481 3.7896
59.4408 -7.5178 3.6248
44.4945 -8.1484 5.0866
44.5801 -8.1727 5.2416
44.6753 -8.1838 5.318
44.7684 -8.1976 5.4103
44.8664 -8.2047 5.4633
44.966 -8.2094 5.5021
45.0669 -8.2124 5.5312
45.1692 -8.2134 5.5481
45.2731 -8.2122 5.5526
45.3769 -8.2112 5.5579
45.4795 -8.2119 5.5729
45.5814 -8.2135 5.5935
45.6832 -8.2152 5.6145
45.785 -8.2168 5.6352
45.8878 -8.217 5.648
45.9926 -8.2146 5.645
46.0972 -8.2125 5.6439
46.1989 -8.2143 5.6653
46.2987 -8.2185 5.7013
46.3991 -8.222 5.7331
46.5018 -8.2222 5.7459
46.6075 -8.2187 5.7361
46.7162 -8.2113 5.7041
46.8274 -8.2007 5.6529
46.938 -8.1909 5.6066
47.0444 -8.1865 5.5919
47.1479 -8.186 5.6
47.2522 -8.1843 5.6016
47.3577 -8.1812 5.5942
47.4618 -8.1798 5.5974
47.5645 -8.1802 5.6111
47.6675 -8.1802 5.6224
47.7711 -8.1795 5.6293
47.8744 -8.179 5.6378
47.9777 -8.1787 5.6474
48.0813 -8.1778 5.6537
48.1844 -8.1777 5.6644
48.2856 -8.1799 5.6888
48.3854 -8.1838 5.7227
48.4844 -8.1887 5.7628
48.5828 -8.1942 5.8069
48.6823 -8.1984 5.8429
48.7835 -8.2005 5.8664
48.8839 -8.2035 5.8954
48.9825 -8.2087 5.9378
49.082 -8.2128 5.9731
49.1838 -8.2141 5.9919
49.2863 -8.2145 6.0056
49.3884 -8.2152 6.0217
49.4913 -8.2152 6.0329
49.5961 -8.2128 6.0303
49.7027 -8.2083 6.0151
49.8106 -8.2022 5.9905
49.9209 -8.1934 5.9499
50.0336 -8.1818 5.8932
50.1469 -8.1694 5.8321
50.2587 -8.1589 5.7816
50.3677 -8.1519 5.7516
50.4756 -8.146 5.7287
50.5836 -8.14 5.7051
50.6895 -8.1365 5.6959
50.7931 -8.1358 5.7032
50.896 -8.1358 5.7148
50.9983 -8.1365 5.7304
51.1014 -8.1363 5.7405
51.2081 -8.132 5.7268
51.315 -8.1274 5.711
51.4145 -8.1312 5.7452
51.5075 -8.1426 5.8235
51.5995 -8.1548 5.907
51.6944 -8.1638 5.9713
51.7925 -8.1691 6.0142
51.8922 -8.1726 6.0461
51.9923 -8.1757 6.0755
52.0919 -8.1791 6.1075
52.1907 -8.1835 6.1449
52.2895 -8.1879 6.1823
52.3906 -8.1897 6.2041
52.4954 -8.1873 6.202
52.6018 -8.1832 6.1895
52.7081 -8.1793 6.1781
52.8151 -8.1746 6.1619
52.9234 -8.1685 6.1374
53.0324 -8.1616 6.1087
53.1429 -8.1532 6.0707
53.2558 -8.142 6.0169
53.3699 -8.1298 5.9566
53.4829 -8.1187 5.9031
53.5933 -8.1105 5.8665
53.7021 -8.1041 5.8405
53.8106 -8.0979 5.816
53.9161 -8.0951 5.8109
54.0161 -8.0981 5.8403
54.1156 -8.1016 5.8728
54.2189 -8.1011 5.8815
54.3251 -8.0976 5.8723
54.4318 -8.0934 5.8593
54.5383 -8.0896 5.8486
54.6428 -8.0877 5.8493
54.7449 -8.0885 5.8657
54.8466 -8.0896 5.8841
54.9498 -8.0892 5.8934
55.0526 -8.0892 5.9049
55.1526 -8.0921 5.9335
55.2513 -8.0964 5.9703
55.3517 -8.0988 5.9962
55.4541 -8.0991 6.01
55.5569 -8.099 6.0212
55.6591 -8.0997 6.0367
55.7601 -8.1014 6.0586
55.8614 -8.1028 6.0786
55.9647 -8.1022 6.0871
56.0691 -8.1005 6.0885
56.1727 -8.0996 6.0952
56.2746 -8.1004 6.1116
56.3762 -8.1014 6.1295
56.4797 -8.1007 6.1367
56.5852 -8.0979 6.1321
56.6918 -8.0938 6.1202
56.8003 -8.0881 6.0981
56.9107 -8.0803 6.0644
57.0215 -8.0722 6.0288
57.131 -8.0655 6.0009
57.2387 -8.0606 5.9843
57.3453 -8.0567 5.9734
57.452 -8.0528 5.9622
57.5579 -8.0497 5.9559
57.6633 -8.047 5.9521
57.7704 -8.0428 5.9389
57.8789 -8.0371 5.9174
57.9902 -8.0287 5.8805
58.1108 -8.0114 5.7905
58.2479 -7.9779 5.6065
58.4026 -7.9276 5.3235
58.576 -7.8594 4.9356
58.7372 -7.8033 4.6184
58.8877 -7.7578 4.3638
59.0211 -7.7289 4.2062
59.1531 -7.7015 4.0575
59.2816 -7.6775 3.9289
44.5824 -8.2757 5.2306
44.6781 -8.286 5.3027
44.7726 -8.2979 5.3841
44.8703 -8.3053 5.4388
44.9702 -8.3097 5.4759
45.0712 -8.3125 5.504
45.1732 -8.3141 5.5242
45.2761 -8.3142 5.5362
45.3793 -8.3141 5.5467
45.4817 -8.3149 5.5629
45.5837 -8.3163 5.5822
45.6858 -8.3176 5.6009
45.7876 -8.3192 5.6221
45.8899 -8.3201 5.6386
45.9945 -8.3181 5.6379
46.0993 -8.3158 5.6356
46.2014 -8.3169 5.6534
46.3018 -8.3203 5.6845
46.4027 -8.323 5.7119
46.5053 -8.3236 5.7264
46.6096 -8.3218 5.727
46.7159 -8.3176 5.7133
46.8251 -8.3095 5.6768
46.9362 -8.2991 5.6268
47.0448 -8.2919 5.5957
47.1499 -8.2893 5.5917
47.2542 -8.2876 5.5929
47.3587 -8.2858 5.5935
47.4624 -8.2849 5.5994
47.5655 -8.2847 5.61
47.6686 -8.2846 5.6208
47.7717 -8.2845 5.6311
47.8748 -8.2844 5.6421
47.9782 -8.2838 5.6498
48.0828 -8.2818 5.6494
48.1873 -8.2799 5.6494
48.2901 -8.2802 5.6627
48.3908 -8.2829 5.6899
48.4896 -8.2881 5.7317
48.5872 -8.2946 5.7814
48.6864 -8.2991 5.8199
48.7873 -8.3016 5.8459
48.8867 -8.3058 5.8822
48.9843 -8.3122 5.9313
49.0831 -8.3171 5.9714
49.1845 -8.3188 5.9928
49.2874 -8.3187 6.0036
49.3906 -8.3183 6.0129
49.4937 -8.318 6.0221
49.5977 -8.3165 6.0248
49.7027 -8.3139 6.0208
49.8087 -8.3102 6.0105
49.9168 -8.3039 5.9846
50.0282 -8.2938 5.9368
50.1421 -8.2808 5.8716
50.2554 -8.2685 5.8105
50.3657 -8.2599 5.7713
50.4749 -8.2526 5.7395
50.5843 -8.245 5.7064
50.691 -8.2406 5.692
50.7943 -8.2402 5.7009
50.8966 -8.2409 5.7165
50.9983 -8.2422 5.736
51.1011 -8.2424 5.7488
51.2075 -8.2383 5.7363
51.3149 -8.2332 5.7175
51.4163 -8.235 5.7394
51.5097 -8.2457 5.8141
51.6008 -8.259 5.9041
51.694 -8.2699 5.9798
51.791 -8.2764 6.0298
51.8911 -8.2794 6.0592
51.9925 -8.2809 6.0796
52.093 -8.2834 6.1059
52.1921 -8.2874 6.141
52.2918 -8.2908 6.1724
52.3941 -8.2913 6.1866
52.499 -8.2889 6.1842
52.6045 -8.2858 6.1777
52.71 -8.2828 6.1714
52.8164 -8.2787 6.1591
52.9233 -8.2741 6.1435
53.0306 -8.269 6.1253
53.1406 -8.2611 6.0904
53.254 -8.2496 6.034
53.3682 -8.2372 5.9725
53.4806 -8.2268 5.9231
53.5893 -8.2204 5.8973
53.6975 -8.2146 5.8746
53.8088 -8.2055 5.8327
53.9155 -8.2013 5.8199
54.0154 -8.2045 5.8503
54.1156 -8.2073 5.8783
54.2199 -8.2057 5.8803
54.3271 -8.2011 5.865
54.4339 -8.1968 5.8519
54.5392 -8.1941 5.8476
54.6438 -8.1923 5.8487
54.7473 -8.1915 5.8558
54.8502 -8.1915 5.867
54.9535 -8.1909 5.8756
55.0564 -8.1908 5.8867
55.1567 -8.1934 5.9137
55.2553 -8.1977 5.951
55.3554 -8.2005 5.9786
55.4577 -8.2009 5.9932
55.56 -8.2014 6.0074
55.6609 -8.2032 6.0302
55.7608 -8.2062 6.0594
55.8612 -8.2085 6.0848
55.964 -8.2084 6.0961
56.0684 -8.2066 6.0974
56.1728 -8.205 6.0994
56.276 -8.2044 6.1078
56.3793 -8.2038 6.1163
56.4836 -8.2021 6.1181
56.5885 -8.2 6.1171
56.6934 -8.1977 6.1156
56.7999 -8.1939 6.1051
56.9091 -8.1874 6.0789
57.0196 -8.1796 6.0446
57.1285 -8.1734 6.0203
57.2344 -8.1703 6.0135
57.3404 -8.167 6.0063
57.4481 -8.1621 5.9894
57.5554 -8.1576 5.9746
57.6626 -8.1533 5.9609
57.771 -8.1477 5.9399
57.8797 -8.1418 5.9173
57.9906 -8.1339 5.8828
58.1098 -8.1179 5.8004
58.2413 -8.0901 5.649
58.3836 -8.0518 5.4362
58.5334 -8.0065 5.1821
58.6867 -7.958 4.9091
58.8553 -7.8951 4.5511
58.9959 -7.8593 4.3529
59.1305 -7.8293 4.1889
59.2582 -7.8061 4.0645
59.3878 -7.7812 3.9301
44.8741 -8.4062 5.4159
44.9741 -8.4105 5.4527
45.0753 -8.413 5.4786
45.1773 -8.4144 5.4983
45.2795 -8.4157 5.517
45.3816 -8.4169 5.5358
45.4837 -8.4182 5.5546
45.5859 -8.4194 5.5728
45.6881 -8.4205 5.5904
45.79 -8.422 5.6107
45.892 -8.4233 5.6296
45.9957 -8.4224 5.6357
46.0998 -8.4209 5.6381
46.2024 -8.4215 5.6527
46.3038 -8.4236 5.6765
46.4056 -8.4252 5.697
46.5087 -8.425 5.7072
46.6128 -8.4236 5.7101
46.7174 -8.4215 5.709
46.8242 -8.4165 5.6907
46.935 -8.4065 5.6431
47.0456 -8.3968 5.5965
47.1525 -8.3919 5.579
47.2571 -8.3898 5.578
47.3613 -8.3884 5.5808
47.465 -8.3875 5.5869
47.5679 -8.3876 5.5987
47.6703 -8.3884 5.615
47.7724 -8.3895 5.6327
47.8745 -8.3906 5.6509
47.9772 -8.391 5.6643
48.0818 -8.3889 5.6637
48.1878 -8.3852 5.6529
48.293 -8.3824 5.6477
48.3955 -8.383 5.6625
48.4944 -8.3879 5.7033
48.5913 -8.3953 5.7583
48.6899 -8.4007 5.8014
48.7899 -8.4042 5.8334
48.8881 -8.4098 5.8781
48.9851 -8.4169 5.9318
49.0836 -8.4222 5.9741
49.1852 -8.4236 5.9941
49.2896 -8.4217 5.9944
49.3943 -8.4195 5.9925
49.4977 -8.4188 5.9997
49.6003 -8.4191 6.0131
49.7029 -8.4193 6.0256
49.8067 -8.4182 6.0306
49.9133 -8.4137 6.0154
50.0245 -8.4038 5.9683
50.1392 -8.3898 5.8974
50.2536 -8.3763 5.8291
50.3652 -8.3661 5.7803
50.4756 -8.3575 5.7408
50.5853 -8.3495 5.7052
50.6919 -8.3453 5.692
50.7949 -8.3452 5.7027
50.8968 -8.3464 5.7213
50.998 -8.3484 5.7445
51.1001 -8.3492 5.7609
51.206 -8.3458 5.7525
51.3129 -8.3412 5.737
51.4155 -8.3416 5.7504
51.5111 -8.3498 5.811
51.603 -8.3622 5.8956
51.6953 -8.374 5.9767
51.7909 -8.3821 6.0363
51.8908 -8.3853 6.0668
51.9927 -8.3863 6.0842
52.0936 -8.3883 6.1077
52.1936 -8.3913 6.137
52.2947 -8.3932 6.1595
52.3976 -8.3929 6.1694
52.502 -8.3911 6.1703
52.6065 -8.389 6.1699
52.7117 -8.3863 6.1655
52.8181 -8.3823 6.1535
52.9244 -8.3784 6.142
53.0303 -8.3749 6.1331
53.1391 -8.3683 6.1057
53.2519 -8.3574 6.0529
53.3656 -8.3456 5.9948
53.4772 -8.336 5.9499
53.5844 -8.3313 5.9336
53.6867 -8.3317 5.948
53.8103 -8.3095 5.8285
53.9165 -8.3059 5.8188
54.0145 -8.311 5.8608
54.1146 -8.3139 5.8895
54.22 -8.3112 5.8853
54.3289 -8.3047 5.8589
54.4362 -8.3 5.8425
54.5401 -8.2988 5.8476
54.6443 -8.2974 5.8507
54.7496 -8.2947 5.8468
54.8534 -8.2937 5.8522
54.9564 -8.2935 5.8628
55.0591 -8.2936 5.8751
55.1597 -8.2958 5.9001
55.2588 -8.2997 5.9346
55.3591 -8.3022 5.9614
55.4612 -8.3029 5.9771
55.5631 -8.3037 5.9936
55.6636 -8.306 6.0189
55.7632 -8.3092 6.0496
55.8636 -8.3115 6.0752
55.9662 -8.3117 6.0879
56.0703 -8.3102 6.0912
56.1746 -8.3085 6.093
56.2787 -8.3071 6.0965
56.383 -8.3056 6.0991
56.4877 -8.3036 6.099
56.5919 -8.302 6.1016
56.6952 -8.3013 6.1095
56.7998 -8.2994 6.11
56.9075 -8.2945 6.0929
57.0165 -8.2881 6.0673
57.1238 -8.2836 6.0525
57.2289 -8.2812 6.0503
57.335 -8.2778 6.0423
57.4426 -8.273 6.0257
57.5512 -8.2672 6.0034
57.6615 -8.2598 5.9714
57.7717 -8.2525 5.9406
57.8808 -8.2463 5.9159
57.9927 -8.2374 5.8752
58.1126 -8.2207 5.789
58.2393 -8.1975 5.6643
58.3662 -8.1743 5.5393
58.4923 -8.1519 5.4195
58.6557 -8.0938 5.0893
58.8172 -8.0376 4.7705
58.9655 -7.9945 4.5282
59.1028 -7.962 4.3493
59.238 -7.9316 4.1823
59.3772 -7.8976 3.994
59.5118 -7.8681 3.8323
44.7781 -8.5026 5.355
44.8772 -8.5081 5.3989
44.9773 -8.5121 5.4339
45.0787 -8.5144 5.4591
45.1808 -8.5157 5.4781
45.2825 -8.5176 5.5007
45.3838 -8.52 5.5261
45.4855 -8.5219 5.5482
45.5875 -8.5232 5.5674
45.6898 -8.5241 5.584
45.7922 -8.525 5.6006
45.8941 -8.5264 5.6203
45.9965 -8.5272 5.6364
46.0997 -8.5271 5.6466
46.2023 -8.5275 5.6607
46.3045 -8.5286 5.6785
46.4073 -8.5288 5.691
46.5114 -8.5274 5.6939
46.6157 -8.5257 5.695
46.7194 -8.5248 5.7008
46.8245 -8.522 5.6954
46.9345 -8.5131 5.6541
47.046 -8.5022 5.6011
47.1545 -8.4952 5.5704
47.2603 -8.4917 5.5613
47.3649 -8.4897 5.5606
47.4684 -8.4891 5.5683
47.5704 -8.4904 5.5874
47.6717 -8.4925 5.6112
47.7731 -8.4944 5.6343
47.8743 -8.4967 5.659
47.976 -8.4983 5.6799
48.0807 -8.4961 5.678
48.1893 -8.4891 5.6482
48.2972 -8.4831 5.624
48.4007 -8.4824 5.6315
48.4991 -8.488 5.6758
48.5949 -8.4967 5.739
48.6923 -8.5035 5.7903
48.7916 -8.5079 5.8278
48.8894 -8.514 5.8755
48.9865 -8.521 5.9283
49.0858 -8.5252 5.9648
49.1889 -8.5249 5.9746
49.2945 -8.5215 5.966
49.3996 -8.5188 5.9612
49.5024 -8.5189 5.9734
49.6033 -8.5212 5.9982
49.704 -8.5236 6.0242
49.8061 -8.5245 6.0409
49.9118 -8.521 6.0318
50.0234 -8.5107 5.9824
50.1386 -8.4962 5.9079
50.2536 -8.482 5.8354
50.3661 -8.4708 5.7805
50.4767 -8.4619 5.7393
50.5854 -8.4551 5.7105
50.6915 -8.4515 5.7004
50.7951 -8.4507 5.7075
50.897 -8.4519 5.7258
50.9979 -8.4541 5.7505
51.1 -8.455 5.7675
51.2053 -8.4523 5.7628
51.3113 -8.4487 5.7534
51.4138 -8.4492 5.7678
51.5112 -8.4553 5.8154
51.6054 -8.4651 5.8849
51.6984 -8.4761 5.9619
51.7929 -8.4854 6.0284
51.8917 -8.4898 6.0661
51.9929 -8.4916 6.0881
52.0939 -8.4935 6.1113
52.1951 -8.4951 6.1325
52.2974 -8.4957 6.1473
52.4005 -8.4952 6.1561
52.5045 -8.4938 6.1596
52.6088 -8.492 6.1607
52.7139 -8.4895 6.1571
52.8205 -8.4852 6.1432
52.9272 -8.4808 6.1292
53.0329 -8.4776 6.1215
53.1403 -8.4725 6.1033
53.2509 -8.464 6.0646
53.3627 -8.4542 6.0183
53.4731 -8.446 5.9816
53.5797 -8.4418 5.9684
53.6818 -8.4426 5.9845
53.8155 -8.4095 5.8006
53.9164 -8.4116 5.8247
54.0132 -8.418 5.8745
54.1126 -8.4216 5.9073
54.2184 -8.4184 5.9001
54.3285 -8.4107 5.8661
54.4365 -8.4052 5.8457
54.5401 -8.4044 5.8523
54.6444 -8.4028 5.855
54.7505 -8.3994 5.8464
54.8549 -8.3977 5.8482
54.958 -8.3974 5.8583
55.0606 -8.3976 5.8709
55.1619 -8.3991 5.8918
55.2624 -8.4015 5.9175
55.3636 -8.4031 5.939
55.4655 -8.4039 5.9555
55.5671 -8.4051 5.9742
55.6672 -8.4078 6.0022
55.7663 -8.4115 6.0358
55.8666 -8.414 6.0623
55.9691 -8.4141 6.0749
56.073 -8.4129 6.0797
56.177 -8.4116 6.0836
56.2812 -8.4101 6.0867
56.3856 -8.4084 6.0883
56.49 -8.4066 6.0896
56.5936 -8.4057 6.096
56.6961 -8.406 6.1094
56.7993 -8.4054 6.1179
56.9055 -8.4019 6.1089
57.0132 -8.3969 6.0913
57.12 -8.3928 6.079
57.2262 -8.3893 6.0706
57.3321 -8.3862 6.0637
57.4382 -8.3828 6.0556
57.5474 -8.3764 6.0301
57.66 -8.3668 5.9849
57.7717 -8.358 5.9452
57.882 -8.3506 5.9131
57.9965 -8.3392 5.8581
58.1182 -8.3208 5.7612
58.2436 -8.2991 5.6448
58.3677 -8.2785 5.5356
58.4905 -8.2593 5.4342
58.6238 -8.2302 5.274
58.7653 -8.1933 5.0685
58.932 -8.1325 4.7216
59.0748 -8.0948 4.511
59.2189 -8.056 4.294
59.3661 -8.0144 4.0605
59.5011 -7.9845 3.896
44.7787 -8.6078 5.3579
44.8792 -8.6113 5.3899
44.9798 -8.6148 5.4221
45.0811 -8.6172 5.4476
45.183 -8.6188 5.4684
45.2844 -8.6211 5.4932
45.3855 -8.6237 5.52
45.487 -8.6258 5.5434
45.5889 -8.6273 5.564
45.6915 -8.6279 5.5787
45.7946 -8.6278 5.589
45.897 -8.6286 5.6053
45.9987 -8.6304 5.6271
46.1007 -8.6316 5.6458
46.203 -8.6325 5.6625
46.3056 -8.633 5.677
46.4093 -8.6321 5.6829
46.5139 -8.63 5.6816
46.6183 -8.6282 5.6823
46.7217 -8.6276 5.6901
46.8262 -8.6256 5.6895
46.9349 -8.6184 5.6577
47.0457 -8.6085 5.6103
47.1549 -8.6006 5.5746
47.2622 -8.5952 5.5539
47.3675 -8.5923 5.5482
47.4702 -8.5927 5.5615
47.5713 -8.5951 5.5872
47.6726 -8.5971 5.6109
47.7744 -8.5987 5.6317
47.8757 -8.6008 5.6553
47.9774 -8.6023 5.6761
48.0828 -8.5993 5.6696
48.1929 -8.5905 5.6283
48.3023 -8.5826 5.5928
48.4058 -8.5821 5.6012
48.5033 -8.5886 5.6517
48.5986 -8.598 5.7185
48.6954 -8.6055 5.7745
48.7937 -8.611 5.8192
48.8913 -8.6174 5.8686
48.9892 -8.6233 5.9151
49.0903 -8.6254 5.9389
49.1949 -8.6234 5.9384
49.3003 -8.6203 5.9313
49.4042 -8.619 5.9354
49.5058 -8.6205 5.9556
49.6061 -8.6235 5.985
49.7064 -8.6264 6.0138
49.808 -8.6278 6.0335
49.9129 -8.6253 6.0301
50.0237 -8.6159 5.986
50.1389 -8.6015 5.9117
50.2545 -8.5866 5.8351
50.3675 -8.5749 5.7767
50.4774 -8.5668 5.7404
50.5846 -8.5618 5.7222
50.69 -8.559 5.7168
50.794 -8.5577 5.7208
50.8967 -8.5579 5.7338
50.9986 -8.559 5.7518
51.1015 -8.559 5.7634
51.2064 -8.5567 5.7614
51.3113 -8.5545 5.7595
51.4132 -8.5556 5.7776
51.5119 -8.5602 5.817
51.6083 -8.5675 5.8716
51.7027 -8.5769 5.939
51.797 -8.5864 6.0069
51.8942 -8.5926 6.0552
51.9941 -8.5958 6.086
52.095 -8.5978 6.1096
52.197 -8.5987 6.1262
52.2997 -8.5986 6.1376
52.4031 -8.5979 6.1451
52.5071 -8.5964 6.148
52.6113 -8.5948 6.1499
52.7164 -8.5922 6.146
52.8235 -8.5874 6.1295
52.9304 -8.5829 6.1142
53.0356 -8.5801 6.1096
53.1416 -8.5766 6.1002
53.2502 -8.5703 6.0744
53.36 -8.5626 6.0408
53.4692 -8.5557 6.0115
53.5786 -8.5486 5.9809
53.6921 -8.5372 5.9249
53.8117 -8.5192 5.8304
53.9137 -8.5201 5.8469
54.0107 -8.5262 5.8953
54.1103 -8.5296 5.9272
54.2166 -8.5259 5.9165
54.3268 -8.5181 5.8822
54.4345 -8.5129 5.8631
54.539 -8.5112 5.8647
54.6439 -8.5089 5.8633
54.7497 -8.5058 5.8565
54.8543 -8.5039 5.8572
54.9579 -8.5031 5.864
55.0608 -8.5029 5.8748
55.163 -8.5036 5.8904
55.2656 -8.5038 5.9033
55.3682 -8.5039 5.9156
55.4701 -8.5048 5.9329
55.5714 -8.5063 5.9535
55.6712 -8.5093 5.9832
55.7695 -8.5137 6.0215
55.8687 -8.5173 6.0543
55.9706 -8.5181 6.0709
56.0741 -8.5173 6.0781
56.1776 -8.5165 6.0851
56.2815 -8.5153 6.0897
56.3859 -8.5135 6.0912
56.49 -8.5121 6.0944
56.5931 -8.5116 6.1038
56.6952 -8.5122 6.1189
56.7981 -8.512 6.1296
56.9037 -8.5091 6.1246
57.0109 -8.5046 6.1093
57.1185 -8.4997 6.0924
57.2257 -8.4953 6.0783
57.3308 -8.4929 6.0761
57.4352 -8.4912 6.078
57.5442 -8.4851 6.0533
57.658 -8.4742 6.0009
57.7715 -8.4637 5.9506
57.8842 -8.4539 5.905
58.001 -8.4404 5.8366
58.1233 -8.4215 5.7367
58.2475 -8.4008 5.6266
58.3704 -8.3816 5.5247
58.4917 -8.3639 5.4317
58.6105 -8.3487 5.3538
58.7314 -8.3316 5.2646
58.9018 -8.2673 4.8964
59.054 -8.2206 4.6323
59.2022 -8.178 4.392
59.3482 -8.1376 4.165
59.4791 -8.1116 4.0234
44.6816 -8.7056 5.3052
44.7797 -8.7124 5.357
44.8805 -8.7156 5.3872
44.9812 -8.7189 5.4182
45.0822 -8.7217 5.4458
45.1837 -8.7239 5.4703
45.285 -8.7262 5.4956
45.3866 -8.7282 5.5185
45.4887 -8.7295 5.5377
45.591 -8.7305 5.5548
45.694 -8.7305 5.5662
45.7978 -8.7295 5.5714
45.901 -8.7292 5.581
46.0028 -8.7309 5.6024
46.1039 -8.7333 5.628
46.2058 -8.7348 5.6484
46.3088 -8.7348 5.6597
46.413 -8.7332 5.6615
46.5175 -8.7312 5.6609
46.6213 -8.7302 5.666
46.7246 -8.7298 5.6753
46.829 -8.728 5.6757
46.9362 -8.7225 5.6545
47.0451 -8.715 5.6212
47.1539 -8.7077 5.5889
47.2621 -8.7011 5.5611
47.368 -8.6975 5.5508
47.4705 -8.6982 5.5666
47.5718 -8.7003 5.5906
47.674 -8.7013 5.6076
47.7766 -8.7017 5.6216
47.879 -8.7025 5.6377
47.9817 -8.7029 5.6513
48.0869 -8.7001 5.6461
48.196 -8.6925 5.6125
48.3048 -8.6854 5.5812
48.4082 -8.6849 5.5902
48.5063 -8.6909 5.6371
48.6027 -8.6988 5.6956
48.6999 -8.7057 5.7483
48.7973 -8.7124 5.7996
48.8944 -8.7194 5.8526
48.9933 -8.7241 5.8922
49.0959 -8.7244 5.9055
49.2006 -8.7222 5.9036
49.3048 -8.7206 5.906
49.4071 -8.7213 5.9214
49.5081 -8.7234 5.9454
49.6086 -8.7261 5.9731
49.7093 -8.7287 5.9998
49.8109 -8.73 6.0196
49.9151 -8.7284 6.0211
50.0244 -8.7208 5.9875
50.139 -8.707 5.917
50.2554 -8.6913 5.8351
50.3692 -8.6786 5.7713
50.4784 -8.6714 5.7396
50.5842 -8.668 5.7312
50.6882 -8.6667 5.735
50.7917 -8.666 5.7425
50.8958 -8.6647 5.7459
51 -8.6631 5.7482
51.1043 -8.6615 5.7504
51.2087 -8.6598 5.7516
51.3124 -8.6588 5.7577
51.4142 -8.6601 5.7768
51.514 -8.6635 5.8085
51.6121 -8.6689 5.8521
51.7076 -8.677 5.9122
51.802 -8.6864 5.9795
51.8981 -8.6939 6.0357
51.9967 -8.6984 6.0743
52.0972 -8.7008 6.1005
52.199 -8.7019 6.1184
52.3017 -8.702 6.1304
52.4053 -8.701 6.1361
52.5095 -8.6993 6.1381
52.6138 -8.6975 6.139
52.7194 -8.6944 6.132
52.8265 -8.6896 6.1152
52.9326 -8.686 6.1056
53.0367 -8.6844 6.1077
53.1423 -8.6814 6.1013
53.25 -8.676 6.0811
53.3579 -8.6704 6.0593
53.4664 -8.6642 6.0343
53.5779 -8.6548 5.9905
53.6936 -8.641 5.9202
53.806 -8.6309 5.8716
53.9089 -8.6307 5.8824
54.0075 -8.6351 5.9203
54.109 -8.6366 5.9405
54.2162 -8.6318 5.9241
54.3253 -8.6252 5.8968
54.4314 -8.6218 5.888
54.5361 -8.6197 5.8874
54.6419 -8.6166 5.8808
54.7473 -8.6138 5.8759
54.8518 -8.6121 5.8776
54.9559 -8.6107 5.8809
55.0595 -8.6098 5.8878
55.1629 -8.6092 5.8959
55.2673 -8.6075 5.8975
55.3711 -8.6065 5.9034
55.4728 -8.6075 5.9212
55.5739 -8.6093 5.9434
55.674 -8.6118 5.9707
55.7724 -8.6163 6.0089
55.8706 -8.6209 6.048
55.9712 -8.623 6.0724
56.0737 -8.6232 6.0855
56.1764 -8.6231 6.0966
56.2798 -8.6224 6.1043
56.384 -8.6209 6.1073
56.488 -8.6195 6.1112
56.5911 -8.6191 6.1203
56.6936 -8.6193 6.1334
56.7968 -8.6187 6.1421
56.9021 -8.6161 6.1385
57.0089 -8.612 6.126
57.1164 -8.6073 6.1097
57.2233 -8.603 6.0965
57.3278 -8.6013 6.0981
57.4319 -8.5998 6.1013
57.5418 -8.5928 6.0714
57.6567 -8.5809 6.0127
57.7717 -8.5689 5.9539
57.8866 -8.5572 5.8961
58.0043 -8.5427 5.8223
58.125 -8.5254 5.7313
58.2473 -8.5067 5.6325
58.3692 -8.4883 5.5355
58.489 -8.4721 5.4515
58.605 -8.4597 5.3895
58.719 -8.4491 5.339
58.8695 -8.4039 5.0831
59.0245 -8.3546 4.8026
59.1755 -8.3093 4.5458
59.329 -8.2619 4.2768
59.4675 -8.2288 4.0927
44.5812 -8.8079 5.279
44.6802 -8.8137 5.3246
44.7805 -8.8175 5.3588
44.8813 -8.8206 5.3887
44.982 -8.8239 5.4194
45.0829 -8.8268 5.4479
45.1841 -8.8293 5.4743
45.2856 -8.8314 5.4985
45.3877 -8.8327 5.5175
45.4905 -8.833 5.5305
45.5938 -8.8327 5.5401
45.6974 -8.8319 5.5467
45.8015 -8.8305 5.5496
45.9052 -8.8297 5.5558
46.0072 -8.831 5.5752
46.108 -8.8339 5.6036
46.2095 -8.8359 5.6269
46.3129 -8.8353 5.6346
46.4178 -8.8329 5.6317
46.5221 -8.8312 5.6332
46.625 -8.8313 5.6448
46.7277 -8.8317 5.6584
46.8318 -8.8302 5.6613
46.9378 -8.8264 5.6497
47.0448 -8.8213 5.6309
47.1526 -8.8152 5.6058
47.2612 -8.8082 5.5754
47.3678 -8.8037 5.5596
47.4709 -8.8035 5.57
47.5731 -8.8045 5.5873
47.676 -8.8046 5.5993
47.7793 -8.8042 5.6086
47.8829 -8.8035 5.6158
47.9868 -8.8024 5.6203
48.0914 -8.8003 5.6195
48.1978 -8.7961 5.6057
48.3047 -8.7914 5.5892
48.4083 -8.7905 5.5955
48.5082 -8.7944 5.6299
48.6065 -8.8 5.6748
48.7047 -8.8057 5.7206
48.8019 -8.8126 5.7733
48.8987 -8.8199 5.8284
48.998 -8.8242 5.8653
49.1006 -8.8245 5.8787
49.2044 -8.8233 5.883
49.3075 -8.823 5.8928
49.4093 -8.8242 5.9115
49.5105 -8.8262 5.9346
49.6113 -8.8286 5.9607
49.7117 -8.8314 5.989
49.8128 -8.8334 6.0124
49.9164 -8.8324 6.0181
50.0248 -8.8259 5.9907
50.1388 -8.8129 5.9248
50.2556 -8.7967 5.8394
50.3704 -8.783 5.7692
50.4794 -8.7759 5.7388
50.584 -8.7739 5.7384
50.6867 -8.7741 5.7513
50.7901 -8.7736 5.7594
50.8959 -8.7702 5.7511
51.0024 -8.7661 5.7379
51.1074 -8.7637 5.7351
51.211 -8.7629 5.7422
51.3137 -8.7631 5.7551
51.4156 -8.7642 5.7731
51.5168 -8.7661 5.796
51.6162 -8.7699 5.8305
51.7124 -8.7773 5.8859
51.8069 -8.7864 5.9525
51.9026 -8.7944 6.0113
52.0004 -8.7999 6.0556
52.0998 -8.8036 6.0894
52.2004 -8.8058 6.1146
52.3028 -8.8062 6.1284
52.4067 -8.8049 6.1323
52.5114 -8.8028 6.1314
52.6167 -8.7999 6.1257
52.7231 -8.7959 6.114
52.8294 -8.792 6.1023
52.9343 -8.7896 6.0999
53.0388 -8.7877 6.0999
53.145 -8.7839 6.0894
53.2513 -8.78 6.0777
53.3572 -8.7767 6.0696
53.4651 -8.7711 6.0482
53.5772 -8.7611 6.0003
53.6912 -8.7492 5.9412
53.8006 -8.7422 5.911
53.9038 -8.7417 5.92
54.0052 -8.7432 5.9404
54.1093 -8.7417 5.9434
54.2169 -8.7366 5.925
54.3242 -8.7319 5.9086
54.4287 -8.7301 5.9097
54.5335 -8.728 5.909
54.6397 -8.7244 5.8994
54.745 -8.7218 5.8957
54.8493 -8.7202 5.8977
54.9541 -8.7181 5.8974
55.0588 -8.7161 5.8971
55.1636 -8.714 5.8963
55.2688 -8.7115 5.8933
55.3726 -8.7105 5.8991
55.474 -8.7119 5.9192
55.5747 -8.7139 5.9433
55.6752 -8.7162 5.9686
55.7743 -8.7199 6.0026
55.8727 -8.7242 6.0403
55.9727 -8.7269 6.0683
56.0742 -8.7281 6.0868
56.1762 -8.7287 6.1026
56.2788 -8.7288 6.1151
56.3822 -8.7281 6.1226
56.4861 -8.7269 6.1272
56.5897 -8.7259 6.1334
56.6928 -8.7255 6.143
56.7962 -8.7247 6.1503
56.9008 -8.7228 6.1505
57.0064 -8.7199 6.1455
57.1126 -8.7164 6.1364
57.2189 -8.7128 6.1272
57.3239 -8.7105 6.1249
57.4303 -8.7069 6.1155
57.5419 -8.6981 6.0755
57.6568 -8.6863 6.0171
57.7715 -8.6746 5.9597
57.8873 -8.662 5.8964
58.0055 -8.6471 5.8198
58.125 -8.631 5.7363
58.2451 -8.6143 5.649
58.3648 -8.5982 5.5653
58.4816 -8.5849 5.498
58.5954 -8.5745 5.4481
58.7098 -8.5636 5.3955
58.8394 -8.5383 5.2569
58.9879 -8.4952 5.013
59.1401 -8.4488 4.7491
59.2972 -8.398 4.4592
59.4543 -8.3474 4.1708
44.5852 -8.9086 5.2543
44.6828 -8.9161 5.3106
44.7818 -8.9218 5.3559
44.8824 -8.9252 5.3876
44.9832 -8.9283 5.4174
45.0844 -8.9307 5.4433
45.1859 -8.9328 5.4673
45.2876 -8.9348 5.4902
45.3897 -8.936 5.5088
45.4926 -8.9361 5.5211
45.5965 -8.9351 5.5259
45.701 -8.9332 5.5262
45.8051 -8.9318 5.5288
45.9085 -8.9313 5.5376
46.0106 -8.9325 5.5561
46.1114 -8.9353 5.5842
46.2127 -8.9376 5.6089
46.3165 -8.9366 5.6143
46.4221 -8.9333 5.6059
46.5264 -8.9315 5.6068
46.6286 -8.9325 5.6243
46.7306 -8.9338 5.6434
46.8343 -8.9329 5.6492
46.9394 -8.9302 5.6446
47.0449 -8.9271 5.6371
47.1517 -8.9222 5.6193
47.2602 -8.9152 5.5891
47.3675 -8.9099 5.5688
47.4715 -8.9086 5.5721
47.5744 -8.9087 5.5844
47.6775 -8.9086 5.5953
