22.2064 -100.564 -72.8449
22.3597 -100.573 -72.8855
22.5043 -100.565 -72.8523
22.6524 -100.564 -72.8485
22.8049 -100.571 -72.8808
22.9583 -100.579 -72.9208
23.1102 -100.585 -72.9477
23.2586 -100.584 -72.9459
23.4011 -100.573 -72.8951
23.5446 -100.564 -72.8541
23.6944 -100.566 -72.863
23.8491 -100.576 -72.9117
23.9982 -100.577 -72.9154
24.1391 -100.564 -72.8537
24.2795 -100.55 -72.7889
24.4288 -100.551 -72.7938
24.5809 -100.557 -72.8214
24.7415 -100.576 -72.9133
24.8893 -100.575 -72.9062
25.0197 -100.544 -72.7658
25.1524 -100.519 -72.6451
25.3199 -100.549 -72.7882
25.4685 -100.549 -72.7873
25.6127 -100.541 -72.754
25.7588 -100.537 -72.7349
25.9048 -100.533 -72.7152
26.036 -100.506 -72.5868
26.2028 -100.534 -72.7197
26.3489 -100.53 -72.7007
26.4839 -100.509 -72.6021
26.6201 -100.49 -72.5125
26.7582 -100.473 -72.4371
26.9123 -100.482 -72.477
27.0652 -100.488 -72.5081
27.2109 -100.484 -72.4876
27.3552 -100.477 -72.4571
27.5001 -100.472 -72.4318
27.6474 -100.47 -72.4229
27.7937 -100.467 -72.4076
27.9391 -100.462 -72.3855
28.0839 -100.456 -72.3596
28.2366 -100.463 -72.3879
28.4047 -100.491 -72.5199
28.551 -100.487 -72.5041
28.7197 -100.516 -72.6385
28.8952 -100.554 -72.8172
29.0354 -100.542 -72.7591
29.1652 -100.515 -72.6323
29.3198 -100.523 -72.6706
29.4715 -100.527 -72.6889
29.6202 -100.526 -72.6881
29.7728 -100.532 -72.7122
29.9434 -100.562 -72.8523
30.0863 -100.553 -72.8124
30.2272 -100.542 -72.7605
30.375 -100.541 -72.7533
30.5162 -100.53 -72.7037
30.6592 -100.522 -72.6661
30.8146 -100.531 -72.7066
30.9664 -100.535 -72.7242
31.1148 -100.534 -72.7202
31.2616 -100.531 -72.7063
31.4246 -100.549 -72.7931
31.5851 -100.564 -72.8633
31.7226 -100.549 -72.7914
31.8668 -100.543 -72.762
32.0117 -100.537 -72.7359
32.1547 -100.53 -72.6995
32.2958 -100.52 -72.6514
32.4402 -100.514 -72.6235
32.5843 -100.508 -72.5938
32.7218 -100.493 -72.5256
32.8804 -100.505 -72.582
33.035 -100.512 -72.6146
33.1828 -100.511 -72.6073
33.3295 -100.508 -72.5936
33.4756 -100.504 -72.5758
33.6241 -100.504 -72.5726
33.7779 -100.51 -72.5993
33.9279 -100.511 -72.6044
34.0694 -100.502 -72.5606
34.2224 -100.507 -72.5829
34.3876 -100.526 -72.6738
34.5529 -100.546 -72.7643
34.7172 -100.564 -72.849
34.874 -100.573 -72.8901
35.027 -100.577 -72.9105
35.1767 -100.578 -72.912
35.3247 -100.576 -72.9038
35.4757 -100.578 -72.9123
35.6237 -100.576 -72.9042
35.7683 -100.571 -72.8775
35.9205 -100.574 -72.8919
36.0709 -100.576 -72.8968
36.215 -100.569 -72.8674
36.366 -100.571 -72.8758
36.5191 -100.576 -72.8945
36.6666 -100.573 -72.8837
36.8113 -100.568 -72.8577
36.956 -100.563 -72.8319
37.1023 -100.559 -72.8151
37.2518 -100.56 -72.8145
37.4008 -100.559 -72.8117
37.5507 -100.56 -72.8136
37.7039 -100.564 -72.8326
37.8578 -100.569 -72.8544
38.0076 -100.569 -72.8555
38.1496 -100.561 -72.8161
38.2891 -100.55 -72.7644
38.4351 -100.547 -72.7458
38.5901 -100.553 -72.7735
38.7466 -100.561 -72.8081
38.8944 -100.559 -72.7985
39.0336 -100.548 -72.7457
39.1754 -100.54 -72.7063
39.3186 -100.533 -72.6742
39.4664 -100.531 -72.665
39.6184 -100.534 -72.6768
39.768 -100.534 -72.6767
39.919 -100.536 -72.6832
40.0691 -100.537 -72.6852
40.2158 -100.534 -72.6706
40.3626 -100.531 -72.6563
40.5127 -100.532 -72.6585
40.6707 -100.541 -72.6983
40.8337 -100.555 -72.7622
40.9969 -100.569 -72.8264
41.1627 -100.585 -72.9025
41.3462 -100.62 -73.0624
41.5178 -100.642 -73.1648
41.6615 -100.636 -73.1341
41.812 -100.636 -73.136
41.9655 -100.64 -73.1515
42.1163 -100.641 -73.1545
42.2761 -100.651 -73.1992
42.4414 -100.666 -73.2694
42.5953 -100.67 -73.2859
42.7397 -100.664 -73.2583
42.8874 -100.662 -73.2466
43.0528 -100.677 -73.3157
43.2208 -100.695 -73.3962
43.3558 -100.68 -73.3253
43.5097 -100.684 -73.3414
43.6603 -100.684 -73.3418
43.8073 -100.681 -73.3259
43.9564 -100.68 -73.32
44.1067 -100.681 -73.3189
44.2543 -100.678 -73.3062
44.3945 -100.669 -73.2601
44.5369 -100.662 -73.2242
44.678 -100.653 -73.1826
44.8078 -100.634 -73.0913
11.5169 -101.173 -74.8797
11.6542 -101.133 -74.6938
11.7925 -101.096 -74.5259
11.9304 -101.06 -74.3577
12.0689 -101.026 -74.2
12.2115 -101.005 -74.1064
12.3574 -100.995 -74.0627
12.502 -100.981 -73.9994
12.6439 -100.96 -73.9008
12.7835 -100.932 -73.7708
12.9236 -100.906 -73.6508
13.0653 -100.885 -73.5562
13.2167 -100.893 -73.5941
13.3758 -100.922 -73.7349
13.5247 -100.922 -73.7366
13.6717 -100.917 -73.7144
13.8176 -100.908 -73.6765
13.9675 -100.911 -73.6916
14.1149 -100.907 -73.6745
14.2756 -100.939 -73.8278
14.4228 -100.935 -73.8064
14.5709 -100.932 -73.7974
14.7167 -100.924 -73.7598
14.8612 -100.912 -73.7071
15.0037 -100.895 -73.6298
15.1485 -100.885 -73.5829
15.2987 -100.888 -73.6002
15.4492 -100.892 -73.6214
15.5952 -100.885 -73.5889
15.7391 -100.872 -73.533
15.8855 -100.867 -73.5069
16.0332 -100.864 -73.495
16.1832 -100.867 -73.5101
16.3348 -100.873 -73.5432
16.4811 -100.867 -73.5154
16.6248 -100.855 -73.4593
16.7626 -100.829 -73.3401
16.9169 -100.842 -73.4017
17.0715 -100.855 -73.4667
17.2208 -100.856 -73.473
17.3723 -100.862 -73.5029
17.5221 -100.864 -73.5133
17.663 -100.846 -73.4308
17.8084 -100.838 -73.396
17.9546 -100.833 -73.3701
18.0997 -100.824 -73.3334
18.2451 -100.817 -73.3004
18.393 -100.815 -73.2927
18.5402 -100.812 -73.2774
18.6821 -100.797 -73.2106
18.817 -100.767 -73.0739
18.9563 -100.748 -72.9828
19.1183 -100.776 -73.1156
19.2727 -100.788 -73.1724
19.4249 -100.795 -73.2075
19.5736 -100.795 -73.2072
19.7201 -100.79 -73.1874
19.8654 -100.783 -73.1553
20.0087 -100.772 -73.1051
20.1536 -100.764 -73.0707
20.2979 -100.756 -73.0308
20.4408 -100.744 -72.9786
20.5839 -100.733 -72.9291
20.7299 -100.728 -72.9065
20.8775 -100.726 -72.898
21.0296 -100.733 -72.9311
21.1763 -100.729 -72.914
21.3181 -100.716 -72.8544
21.4599 -100.704 -72.7958
21.6036 -100.695 -72.7541
21.752 -100.694 -72.7539
21.8999 -100.693 -72.7493
22.0536 -100.702 -72.7942
22.2 -100.699 -72.7766
22.3463 -100.694 -72.7575
22.5083 -100.718 -72.8717
22.6571 -100.719 -72.8739
22.808 -100.723 -72.893
22.9592 -100.727 -72.9143
23.1113 -100.733 -72.9425
23.2654 -100.743 -72.9877
23.4099 -100.735 -72.953
23.5494 -100.719 -72.8788
23.6973 -100.718 -72.8732
23.8505 -100.725 -72.9098
24 -100.726 -72.9158
24.1445 -100.719 -72.8826
24.289 -100.712 -72.8497
24.4358 -100.709 -72.8356
24.5837 -100.707 -72.8295
24.7402 -100.72 -72.89
24.8877 -100.718 -72.8807
25.0225 -100.695 -72.7741
25.1622 -100.681 -72.7064
25.321 -100.697 -72.7832
25.4665 -100.692 -72.7595
25.6104 -100.684 -72.7233
25.7546 -100.677 -72.6906
25.8958 -100.665 -72.6358
26.0405 -100.659 -72.6071
26.216 -100.701 -72.8033
26.3506 -100.679 -72.7005
26.4863 -100.659 -72.6068
26.6246 -100.643 -72.5322
26.7675 -100.634 -72.4916
26.9166 -100.635 -72.4953
27.0665 -100.637 -72.5048
27.2132 -100.634 -72.4913
27.3565 -100.626 -72.4538
27.5014 -100.62 -72.4285
27.6522 -100.623 -72.4439
27.8048 -100.629 -72.4715
27.9529 -100.629 -72.4679
28.0925 -100.615 -72.4062
28.235 -100.606 -72.3651
28.3886 -100.614 -72.3987
28.5658 -100.655 -72.5918
28.7382 -100.689 -72.7507
28.9043 -100.714 -72.8658
29.0498 -100.709 -72.8427
29.1706 -100.669 -72.6565
29.3239 -100.675 -72.6856
29.48 -100.685 -72.7331
29.6247 -100.679 -72.7052
29.7826 -100.692 -72.764
29.9364 -100.699 -72.7949
30.0771 -100.687 -72.7415
30.2153 -100.672 -72.6728
30.3783 -100.692 -72.7628
30.532 -100.698 -72.792
30.6662 -100.678 -72.6984
30.8169 -100.68 -72.7097
30.9787 -100.698 -72.7894
31.1173 -100.684 -72.7246
31.2647 -100.682 -72.7142
31.4252 -100.697 -72.7852
31.5839 -100.71 -72.8444
31.7213 -100.694 -72.7726
31.8621 -100.684 -72.7219
32.0058 -100.677 -72.6891
32.1497 -100.67 -72.6581
32.2952 -100.666 -72.6366
32.4426 -100.664 -72.6264
32.5837 -100.654 -72.579
32.7202 -100.638 -72.505
32.8809 -100.653 -72.5739
33.0353 -100.66 -72.6055
33.1844 -100.66 -72.6056
33.3318 -100.658 -72.5959
33.4788 -100.655 -72.5835
33.6279 -100.655 -72.5836
33.7797 -100.659 -72.5988
33.9304 -100.661 -72.6079
34.0806 -100.662 -72.6142
34.2424 -100.678 -72.6859
34.4017 -100.69 -72.743
34.5641 -100.706 -72.8168
34.7297 -100.726 -72.9083
34.8869 -100.735 -72.952
35.0382 -100.738 -72.9619
35.1868 -100.737 -72.957
35.3347 -100.735 -72.9485
35.4854 -100.737 -72.9549
35.6361 -100.738 -72.9612
35.7798 -100.731 -72.9294
35.9321 -100.735 -72.9443
36.0806 -100.734 -72.9389
36.2203 -100.723 -72.8857
36.3716 -100.725 -72.8952
36.5257 -100.73 -72.9194
36.6723 -100.727 -72.9036
36.8148 -100.719 -72.8658
36.9598 -100.714 -72.8416
37.1107 -100.716 -72.8488
37.2641 -100.721 -72.8689
37.416 -100.723 -72.881
37.5648 -100.723 -72.8768
37.7154 -100.724 -72.8817
37.8653 -100.725 -72.8831
38.0132 -100.723 -72.8739
38.1574 -100.717 -72.8458
38.2991 -100.709 -72.8053
38.4444 -100.704 -72.7829
38.5969 -100.707 -72.7979
38.757 -100.719 -72.8505
38.9077 -100.72 -72.8557
39.0459 -100.708 -72.7978
39.1862 -100.698 -72.7503
39.3315 -100.694 -72.7289
39.4871 -100.701 -72.7579
39.637 -100.701 -72.7592
39.7814 -100.696 -72.7327
39.9295 -100.694 -72.725
40.0734 -100.688 -72.6962
40.2194 -100.685 -72.6782
40.3742 -100.691 -72.7033
40.5278 -100.695 -72.7216
40.6818 -100.7 -72.7421
40.8416 -100.71 -72.7907
40.9989 -100.718 -72.8263
41.1648 -100.735 -72.9028
41.3408 -100.762 -73.0272
41.5084 -100.78 -73.1106
41.6637 -100.785 -73.135
41.8201 -100.792 -73.1643
41.9731 -100.795 -73.1775
42.1239 -100.796 -73.1804
42.2813 -100.804 -73.2139
42.4433 -100.816 -73.2685
42.5972 -100.82 -73.2852
42.7411 -100.814 -73.2552
42.8924 -100.815 -73.2599
43.0551 -100.827 -73.3165
43.2176 -100.84 -73.3719
43.3449 -100.817 -73.2661
43.5109 -100.833 -73.3371
43.6717 -100.843 -73.3839
43.8199 -100.841 -73.3735
43.9695 -100.841 -73.3695
44.118 -100.839 -73.3604
44.2625 -100.834 -73.3334
44.41 -100.832 -73.3201
44.5669 -100.838 -73.3481
44.7036 -100.825 -73.2867
44.8286 -100.801 -73.174
44.9647 -100.788 -73.1109
10.8539 -101.617 -76.2335
10.9874 -101.558 -75.9607
11.121 -101.5 -75.6955
11.2544 -101.443 -75.4316
11.3882 -101.389 -75.1817
11.5234 -101.34 -74.9583
11.6601 -101.298 -74.7617
11.7976 -101.259 -74.5823
11.9356 -101.222 -74.4132
12.0746 -101.189 -74.2626
12.2165 -101.166 -74.1576
12.3624 -101.156 -74.1134
12.5065 -101.141 -74.0438
12.6472 -101.115 -73.927
12.7863 -101.086 -73.7907
12.9251 -101.055 -73.6514
13.0674 -101.036 -73.5639
13.2202 -101.048 -73.6212
13.3767 -101.07 -73.7279
13.5313 -101.087 -73.8061
13.6864 -101.104 -73.8893
13.8268 -101.08 -73.7781
13.9747 -101.077 -73.7658
14.1213 -101.07 -73.7382
14.2809 -101.099 -73.8758
14.4274 -101.092 -73.8456
14.5714 -101.079 -73.7846
14.7181 -101.073 -73.7592
14.8656 -101.069 -73.7431
15.0091 -101.055 -73.6784
15.152 -101.039 -73.6068
15.3018 -101.042 -73.6198
15.4526 -101.046 -73.6437
15.5979 -101.037 -73.6033
15.7416 -101.024 -73.5439
15.8893 -101.022 -73.533
16.0384 -101.022 -73.5375
16.1877 -101.023 -73.5443
16.337 -101.024 -73.55
16.4831 -101.018 -73.5208
16.626 -101.003 -73.4562
16.7675 -100.986 -73.3771
16.9246 -101.006 -73.4695
17.0743 -101.007 -73.4797
17.2214 -101.003 -73.4622
17.3716 -101.006 -73.478
17.522 -101.01 -73.4962
17.6601 -100.986 -73.3842
17.8129 -100.994 -73.4271
17.9632 -100.997 -73.4428
18.1059 -100.984 -73.3807
18.2481 -100.969 -73.3148
18.3969 -100.969 -73.3154
18.5437 -100.965 -73.2969
18.6871 -100.953 -73.2447
18.8253 -100.931 -73.141
18.9623 -100.906 -73.0264
19.1187 -100.922 -73.1037
19.2733 -100.935 -73.1625
19.4286 -100.949 -73.2276
19.5774 -100.949 -73.2289
19.7252 -100.946 -73.2203
19.8717 -100.942 -73.2001
20.0159 -100.933 -73.1579
20.1593 -100.922 -73.1093
20.3028 -100.911 -73.0616
20.4442 -100.897 -72.9953
20.5858 -100.883 -72.9319
20.7327 -100.88 -72.9174
20.8872 -100.891 -72.9713
21.0347 -100.889 -72.9614
21.1788 -100.88 -72.922
21.3193 -100.865 -72.8509
21.4598 -100.849 -72.78
21.6043 -100.842 -72.746
21.7625 -100.86 -72.8309
21.9142 -100.865 -72.8579
22.0573 -100.855 -72.8116
22.1949 -100.835 -72.7189
22.3306 -100.812 -72.6107
22.4954 -100.841 -72.7489
22.6522 -100.856 -72.8188
22.805 -100.863 -72.8536
22.9564 -100.868 -72.877
23.1092 -100.876 -72.912
23.2686 -100.894 -72.9997
23.4183 -100.896 -73.0079
23.5577 -100.879 -72.9321
23.703 -100.874 -72.9054
23.8549 -100.879 -72.9311
24.0041 -100.88 -72.9349
24.152 -100.878 -72.9289
24.2999 -100.877 -72.922
24.4457 -100.872 -72.8996
24.5923 -100.868 -72.8827
24.7422 -100.87 -72.8918
24.8867 -100.863 -72.8596
25.0261 -100.848 -72.789
25.169 -100.838 -72.7446
25.3174 -100.837 -72.7427
25.4633 -100.833 -72.7222
25.6111 -100.831 -72.7158
25.7567 -100.827 -72.6936
25.8964 -100.812 -72.6267
26.0507 -100.821 -72.6686
26.2109 -100.839 -72.7533
26.3523 -100.828 -72.7004
26.4911 -100.812 -72.6284
26.6297 -100.797 -72.5561
26.7701 -100.784 -72.4975
26.9176 -100.782 -72.4899
27.0681 -100.785 -72.5037
27.2158 -100.784 -72.4973
27.3597 -100.777 -72.4644
27.5047 -100.771 -72.4389
27.6556 -100.775 -72.455
27.8109 -100.785 -72.5019
27.9658 -100.794 -72.5447
28.0985 -100.77 -72.4349
28.238 -100.757 -72.3734
28.3875 -100.758 -72.3796
28.5695 -100.807 -72.6049
28.7418 -100.841 -72.7626
28.9072 -100.864 -72.873
29.0471 -100.851 -72.8128
29.1784 -100.826 -72.6958
29.3319 -100.833 -72.7261
29.4876 -100.842 -72.7708
29.6285 -100.831 -72.7183
29.7671 -100.817 -72.651
29.9111 -100.81 -72.6196
30.0577 -100.807 -72.6049
30.222 -100.828 -72.704
30.3878 -100.851 -72.8117
30.5365 -100.851 -72.8092
30.6644 -100.822 -72.6757
30.8307 -100.846 -72.7844
30.9884 -100.857 -72.8388
31.108 -100.818 -72.6552
31.2436 -100.8 -72.5721
31.4013 -100.812 -72.6261
31.5749 -100.845 -72.7775
31.719 -100.838 -72.7469
31.8606 -100.828 -72.7013
32.0043 -100.821 -72.6683
32.1505 -100.818 -72.6516
32.3007 -100.82 -72.6584
32.4501 -100.82 -72.6602
32.5882 -100.806 -72.5948
32.7227 -100.788 -72.5084
32.8685 -100.784 -72.4898
33.0338 -100.804 -72.5856
33.1862 -100.809 -72.6053
33.3365 -100.81 -72.612
33.4866 -100.812 -72.6178
33.6367 -100.813 -72.6232
33.7863 -100.814 -72.626
33.9348 -100.813 -72.6223
34.0911 -100.822 -72.6628
34.2528 -100.837 -72.7339
34.4124 -100.85 -72.7927
34.5758 -100.867 -72.872
34.7376 -100.882 -72.9418
34.8933 -100.89 -72.977
35.0447 -100.892 -72.9873
35.193 -100.891 -72.981
35.3404 -100.889 -72.9692
35.4878 -100.887 -72.9574
35.6383 -100.888 -72.9626
35.7873 -100.887 -72.9599
35.9342 -100.884 -72.9452
36.081 -100.882 -72.9304
36.2256 -100.876 -72.9037
36.3793 -100.881 -72.9262
36.5284 -100.881 -72.9233
36.6742 -100.877 -72.9034
36.8175 -100.869 -72.8699
36.9634 -100.866 -72.8505
37.1146 -100.868 -72.859
37.2728 -100.878 -72.9043
37.429 -100.885 -72.9386
37.5758 -100.882 -72.9238
37.7226 -100.879 -72.9091
37.8712 -100.878 -72.9034
38.019 -100.877 -72.8937
38.1657 -100.873 -72.8786
38.3121 -100.87 -72.8615
38.4593 -100.868 -72.849
38.6094 -100.868 -72.8512
38.7674 -100.878 -72.8933
38.9185 -100.879 -72.9
39.0579 -100.868 -72.8479
39.1964 -100.857 -72.7918
39.3412 -100.852 -72.767
39.4944 -100.856 -72.7846
39.645 -100.857 -72.7888
39.7929 -100.855 -72.7796
39.9414 -100.854 -72.7736
40.0814 -100.844 -72.7255
40.2247 -100.838 -72.694
40.3852 -100.849 -72.7469
40.5419 -100.857 -72.7803
40.6929 -100.858 -72.7861
40.8462 -100.862 -72.8027
41.0026 -100.869 -72.8342
41.1679 -100.885 -72.9079
41.3417 -100.91 -73.0217
41.5113 -100.93 -73.1146
41.6698 -100.939 -73.1542
41.8272 -100.947 -73.1883
41.9803 -100.95 -73.2017
42.1294 -100.949 -73.1963
42.283 -100.953 -73.212
42.4418 -100.962 -73.2521
42.5979 -100.968 -73.2787
42.7491 -100.969 -73.2829
42.9002 -100.97 -73.2861
43.0556 -100.976 -73.3091
43.2146 -100.985 -73.3486
43.3436 -100.964 -73.2508
43.5203 -100.99 -73.3705
43.6771 -100.996 -73.3988
43.8276 -100.997 -73.399
43.9779 -100.997 -73.3978
44.1261 -100.995 -73.3874
44.2669 -100.986 -73.3437
44.4147 -100.984 -73.3317
44.5755 -100.994 -73.3773
44.7302 -100.998 -73.3951
44.8533 -100.973 -73.2737
44.9745 -100.946 -73.1447
10.7355 -101.878 -76.74
10.8655 -101.804 -76.3996
10.9981 -101.741 -76.11
11.131 -101.681 -75.8317
11.2632 -101.619 -75.5478
11.3957 -101.56 -75.2757
11.5304 -101.509 -75.0428
11.6664 -101.464 -74.8362
11.8033 -101.423 -74.6457
11.941 -101.385 -74.4717
12.0798 -101.351 -74.319
12.2214 -101.327 -74.2084
12.3657 -101.312 -74.14
12.5089 -101.294 -74.0577
12.6501 -101.269 -73.9477
12.7907 -101.244 -73.8307
12.9318 -101.22 -73.7242
13.0756 -101.205 -73.6564
13.2242 -101.205 -73.656
13.3757 -101.213 -73.6943
13.5344 -101.241 -73.8276
13.6955 -101.275 -73.9896
13.8323 -101.241 -73.8311
13.9721 -101.215 -73.7135
14.1153 -101.199 -73.6423
14.2804 -101.244 -73.8503
14.4355 -101.26 -73.93
14.5743 -101.232 -73.8025
14.721 -101.227 -73.7766
14.8707 -101.228 -73.787
15.0148 -101.215 -73.7289
15.1558 -101.195 -73.635
15.3027 -101.19 -73.6126
15.4518 -101.19 -73.6169
15.5987 -101.185 -73.5952
15.7459 -101.181 -73.5771
15.8959 -101.184 -73.5917
16.0455 -101.185 -73.6006
16.1929 -101.182 -73.585
16.3397 -101.177 -73.5639
16.4855 -101.169 -73.5301
16.6308 -101.161 -73.4926
16.7765 -101.153 -73.4593
16.9255 -101.153 -73.4623
17.0773 -101.16 -73.4955
17.2257 -101.159 -73.4923
17.3707 -101.15 -73.4517
17.5152 -101.14 -73.407
17.6585 -101.128 -73.3505
17.8081 -101.129 -73.3599
17.9652 -101.148 -73.4479
18.1093 -101.137 -73.3992
18.2516 -101.123 -73.3336
18.3991 -101.12 -73.3216
18.5462 -101.116 -73.3063
18.691 -101.108 -73.2674
18.8305 -101.088 -73.1762
18.9727 -101.074 -73.1135
19.1289 -101.09 -73.1885
19.2801 -101.095 -73.2135
19.434 -101.106 -73.2643
19.5833 -101.107 -73.27
19.729 -101.1 -73.2415
19.8746 -101.094 -73.2123
20.0191 -101.085 -73.1728
20.164 -101.077 -73.1375
20.3082 -101.068 -73.0963
20.449 -101.052 -73.0246
20.5893 -101.036 -72.9491
20.7341 -101.028 -72.9147
20.8836 -101.03 -72.9243
21.0334 -101.032 -72.9352
21.1811 -101.031 -72.9282
21.3218 -101.015 -72.858
21.4594 -100.994 -72.7621
21.6109 -101 -72.7888
21.7765 -101.032 -72.938
21.9237 -101.029 -72.9262
22.0582 -101.003 -72.8054
22.1939 -100.979 -72.6959
22.3367 -100.969 -72.6477
22.4948 -100.986 -72.7294
22.6489 -100.996 -72.777
22.8018 -101.004 -72.8132
22.9534 -101.009 -72.8388
23.1073 -101.018 -72.8822
23.265 -101.034 -72.9564
23.4198 -101.045 -73.0062
23.5607 -101.031 -72.9432
23.7067 -101.026 -72.9215
23.8567 -101.028 -72.9317
24.007 -101.031 -72.9446
24.1568 -101.033 -72.9532
24.3072 -101.035 -72.9663
24.457 -101.037 -72.9741
24.604 -101.034 -72.9602
24.7481 -101.026 -72.9247
24.8894 -101.013 -72.8668
25.0304 -101.001 -72.8082
25.1735 -100.992 -72.7657
25.3191 -100.986 -72.7424
25.467 -100.985 -72.7373
25.6186 -100.99 -72.759
25.7618 -100.981 -72.7181
25.9005 -100.965 -72.6444
26.065 -100.99 -72.7615
26.2118 -100.987 -72.7474
26.3539 -100.977 -72.6989
26.4961 -100.966 -72.652
26.6342 -100.95 -72.5763
26.7732 -100.935 -72.5072
26.9188 -100.93 -72.4857
27.0685 -100.932 -72.4936
27.2174 -100.933 -72.4962
27.3663 -100.933 -72.4977
27.5118 -100.928 -72.4761
27.6567 -100.923 -72.4504
27.8061 -100.924 -72.4558
27.95 -100.917 -72.4236
28.0815 -100.892 -72.3066
28.2317 -100.894 -72.3183
28.3879 -100.905 -72.3699
28.5784 -100.966 -72.6528
28.7334 -100.975 -72.6939
28.8992 -100.999 -72.8078
29.0373 -100.984 -72.7357
29.1876 -100.986 -72.7449
29.3393 -100.99 -72.7633
29.4876 -100.989 -72.7591
29.6296 -100.979 -72.7134
29.7697 -100.967 -72.6561
29.9144 -100.961 -72.6292
30.0758 -100.979 -72.7099
30.2478 -101.01 -72.8572
30.3878 -100.998 -72.7995
30.5243 -100.981 -72.7202
30.6602 -100.963 -72.6376
30.8337 -100.997 -72.7921
30.9973 -101.016 -72.8825
31.1307 -100.995 -72.7846
31.2649 -100.975 -72.6923
31.425 -100.99 -72.7606
31.5759 -100.993 -72.7721
31.7179 -100.983 -72.7289
31.8616 -100.976 -72.6957
32.0065 -100.971 -72.6706
32.1538 -100.969 -72.6597
32.3059 -100.973 -72.6781
32.457 -100.976 -72.6904
32.6078 -100.978 -72.7002
32.7522 -100.972 -72.6723
32.8883 -100.955 -72.5951
33.035 -100.953 -72.5813
33.1893 -100.959 -72.612
33.3449 -100.968 -72.6501
33.4971 -100.971 -72.6676
33.648 -100.974 -72.678
33.797 -100.974 -72.6764
33.9467 -100.975 -72.6797
34.1029 -100.983 -72.7196
34.2635 -100.997 -72.7841
34.4231 -101.01 -72.8423
34.5786 -101.018 -72.8768
34.8959 -101.04 -72.9808
35.0483 -101.044 -72.9968
35.1968 -101.043 -72.9911
35.3432 -101.039 -72.9739
35.4896 -101.036 -72.9567
35.641 -101.038 -72.967
35.7901 -101.038 -72.9642
35.9368 -101.035 -72.9491
36.0835 -101.032 -72.9333
36.2309 -101.029 -72.922
36.3794 -101.028 -72.9161
36.5255 -101.024 -72.8973
36.6709 -101.02 -72.8752
36.8174 -101.017 -72.859
36.9663 -101.016 -72.8555
37.1178 -101.019 -72.8654
37.2748 -101.027 -72.9046
37.4339 -101.038 -72.954
37.5843 -101.039 -72.9578
37.7316 -101.037 -72.9452
37.8799 -101.035 -72.9383
38.0273 -101.033 -72.9264
38.1758 -101.032 -72.9199
38.3267 -101.034 -72.9262
38.4766 -101.034 -72.9268
38.6262 -101.034 -72.9263
38.778 -101.037 -72.9368
38.9286 -101.038 -72.941
39.0703 -101.029 -72.9003
39.2088 -101.017 -72.8436
39.3501 -101.008 -72.8014
39.497 -101.006 -72.7875
39.6477 -101.007 -72.7919
39.8011 -101.011 -72.8099
39.9554 -101.016 -72.8325
40.0991 -101.01 -72.8025
40.2427 -101.004 -72.7722
40.3974 -101.009 -72.7962
40.5489 -101.011 -72.8044
40.6931 -101.006 -72.7771
40.8503 -101.014 -72.8129
41.0101 -101.024 -72.8603
41.1725 -101.038 -72.9201
41.3316 -101.048 -72.9639
41.4926 -101.059 -73.0158
41.6645 -101.082 -73.1195
41.8289 -101.096 -73.1867
41.9817 -101.099 -73.1988
42.1331 -101.101 -73.2041
42.2865 -101.104 -73.2188
42.4418 -101.11 -73.2423
42.5982 -101.116 -73.2704
42.756 -101.124 -73.3052
42.9089 -101.127 -73.3168
43.0445 -101.113 -73.2487
43.2172 -101.135 -73.351
43.3598 -101.128 -73.3153
43.5298 -101.147 -73.4043
43.6827 -101.15 -73.4147
43.8329 -101.15 -73.4133
43.9856 -101.152 -73.4232
44.1366 -101.153 -73.4251
44.2801 -101.147 -73.3934
44.4218 -101.139 -73.3537
44.5796 -101.146 -73.3861
44.7327 -101.149 -73.3972
44.8697 -101.136 -73.3368
44.9978 -101.115 -73.2378
45.125 -101.094 -73.1355
10.7478 -102.068 -76.919
10.8776 -101.993 -76.5739
11.009 -101.925 -76.2626
11.1409 -101.861 -75.9659
11.2719 -101.795 -75.6635
11.4036 -101.732 -75.3773
11.5379 -101.68 -75.1363
11.6735 -101.633 -74.9228
11.8095 -101.588 -74.7179
11.9457 -101.545 -74.5206
12.0834 -101.508 -74.3509
12.2243 -101.481 -74.2297
12.3672 -101.462 -74.1407
12.5102 -101.443 -74.0555
12.653 -101.423 -73.9672
12.7955 -101.404 -73.8779
12.9394 -101.388 -73.8098
13.0848 -101.378 -73.7627
13.2317 -101.372 -73.7381
13.3842 -101.382 -73.7879
13.542 -101.408 -73.9084
13.6906 -101.407 -73.9052
13.8324 -101.386 -73.8121
13.9725 -101.361 -73.6994
14.1215 -101.362 -73.7021
14.2851 -101.402 -73.8917
14.4301 -101.391 -73.8423
14.5764 -101.384 -73.8101
14.7246 -101.382 -73.8016
14.8715 -101.376 -73.7776
15.0155 -101.363 -73.7187
15.1578 -101.346 -73.6408
15.3036 -101.338 -73.605
15.4507 -101.333 -73.5855
15.5985 -101.33 -73.5746
15.7484 -101.333 -73.588
15.9008 -101.342 -73.6308
16.0527 -101.349 -73.666
16.1997 -101.344 -73.6452
16.3436 -101.332 -73.5897
16.491 -101.328 -73.5748
16.6357 -101.318 -73.5295
16.7786 -101.304 -73.4644
16.9204 -101.287 -73.3896
17.0788 -101.31 -73.4953
17.2314 -101.318 -73.5365
17.3772 -101.311 -73.5047
17.5242 -101.307 -73.4863
17.6705 -101.301 -73.4601
17.8134 -101.287 -73.3991
17.9643 -101.292 -73.4217
18.1116 -101.288 -73.4067
18.2562 -101.279 -73.3646
18.4023 -101.273 -73.3383
18.5491 -101.269 -73.3192
18.6944 -101.261 -73.2855
18.8381 -101.25 -73.2359
18.985 -101.246 -73.2184
19.1405 -101.26 -73.2861
19.2855 -101.252 -73.2497
19.4351 -101.254 -73.2591
19.5865 -101.259 -73.2847
19.7355 -101.26 -73.2876
19.8785 -101.248 -73.2332
20.0234 -101.24 -73.1976
20.1662 -101.228 -73.1426
20.3109 -101.219 -73.1062
20.455 -101.21 -73.0652
20.5963 -101.196 -72.9982
20.7379 -101.182 -72.9346
20.8829 -101.175 -72.903
21.0334 -101.178 -72.9208
21.184 -101.182 -72.9388
21.3271 -101.171 -72.8909
21.4647 -101.15 -72.7947
21.6204 -101.164 -72.8579
21.784 -101.192 -72.9888
21.9221 -101.172 -72.8974
22.052 -101.137 -72.7374
22.1975 -101.132 -72.712
22.3488 -101.137 -72.7361
22.5031 -101.147 -72.7855
22.6538 -101.151 -72.8035
22.803 -101.152 -72.809
22.9528 -101.154 -72.8198
23.106 -101.162 -72.8575
23.2625 -101.176 -72.9219
23.4128 -101.179 -72.9358
23.5601 -101.176 -72.9242
23.7081 -101.175 -72.9192
23.8564 -101.174 -72.9158
24.0065 -101.176 -72.9266
24.1573 -101.18 -72.9431
24.3078 -101.183 -72.9574
24.4605 -101.189 -72.9884
24.6104 -101.191 -72.9968
24.7533 -101.181 -72.9512
24.8948 -101.169 -72.8951
25.036 -101.156 -72.8377
25.1771 -101.144 -72.7802
25.3225 -101.138 -72.7553
25.4747 -101.144 -72.7821
25.6265 -101.149 -72.8049
25.7713 -101.143 -72.776
25.9103 -101.127 -72.7037
26.0667 -101.139 -72.7608
26.2005 -101.115 -72.6517
26.3538 -101.123 -72.6853
26.4986 -101.117 -72.6572
26.6394 -101.104 -72.6006
26.7798 -101.091 -72.5417
26.923 -101.083 -72.503
27.069 -101.079 -72.4849
27.2185 -101.08 -72.4909
27.3793 -101.099 -72.5765
27.5198 -101.087 -72.5197
27.6598 -101.074 -72.4595
27.8036 -101.066 -72.4266
27.9484 -101.061 -72.4003
28.096 -101.059 -72.3936
28.2454 -101.06 -72.3993
28.3987 -101.067 -72.4306
28.5914 -101.131 -72.7278
28.7371 -101.127 -72.7071
28.8947 -101.14 -72.7655
29.0452 -101.142 -72.7758
29.1941 -101.142 -72.7758
29.3441 -101.143 -72.7827
29.4912 -101.141 -72.7708
29.6339 -101.132 -72.7299
29.7757 -101.122 -72.6835
29.9231 -101.12 -72.6736
30.0839 -101.136 -72.7504
30.2462 -101.155 -72.8354
30.3811 -101.135 -72.7452
30.5198 -101.121 -72.6799
30.6682 -101.121 -72.6761
30.8296 -101.138 -72.7547
30.9865 -101.148 -72.8037
31.1295 -101.14 -72.7658
31.2696 -101.128 -72.7098
31.4232 -101.134 -72.7385
31.5719 -101.134 -72.7362
31.7171 -101.129 -72.7125
31.8631 -101.125 -72.6933
32.0094 -101.122 -72.6767
32.1563 -101.119 -72.6637
32.3067 -101.121 -72.672
32.454 -101.118 -72.6612
32.5976 -101.112 -72.6282
32.7434 -101.107 -72.6086
32.8869 -101.1 -72.5757
33.0338 -101.098 -72.5633
33.1873 -101.104 -72.5893
33.3461 -101.116 -72.6456
33.5053 -101.129 -72.7041
33.6582 -101.133 -72.7255
33.8074 -101.134 -72.7257
33.9569 -101.134 -72.727
34.1154 -101.146 -72.78
34.2753 -101.159 -72.8404
34.436 -101.173 -72.9047
34.5921 -101.181 -72.9423
34.743 -101.183 -72.9503
34.9001 -101.192 -72.9933
35.0512 -101.195 -73.0024
35.1991 -101.193 -72.993
35.3459 -101.19 -72.9779
35.4935 -101.188 -72.9674
35.6425 -101.187 -72.9644
35.7891 -101.184 -72.9483
35.9394 -101.185 -72.9522
36.0899 -101.186 -72.9573
36.2352 -101.182 -72.9343
36.3789 -101.175 -72.9027
36.524 -101.17 -72.879
36.669 -101.165 -72.8544
36.8153 -101.161 -72.8372
36.9688 -101.166 -72.8583
37.1267 -101.176 -72.9024
37.2794 -101.18 -72.9185
37.4359 -101.188 -72.954
37.59 -101.193 -72.9773
37.7408 -101.194 -72.9827
37.8932 -101.198 -72.9966
38.0411 -101.196 -72.9873
38.1894 -101.194 -72.9797
38.34 -101.196 -72.9841
38.4911 -101.197 -72.9909
38.6419 -101.199 -72.9961
38.7915 -101.199 -72.9949
38.9385 -101.196 -72.9805
39.0824 -101.19 -72.9505
39.2205 -101.177 -72.8921
39.3604 -101.167 -72.8426
39.5059 -101.163 -72.8216
39.655 -101.162 -72.8182
39.808 -101.166 -72.8344
39.9634 -101.172 -72.862
40.1112 -101.17 -72.852
40.2545 -101.164 -72.8199
40.4026 -101.162 -72.8117
40.5436 -101.153 -72.7688
40.6803 -101.14 -72.7054
40.8471 -101.158 -72.7872
41.0131 -101.175 -72.8652
41.1728 -101.186 -72.9117
41.3206 -101.184 -72.9013
41.4684 -101.182 -72.891
41.6599 -101.225 -73.0877
41.827 -101.242 -73.1676
41.975 -101.24 -73.1577
42.136 -101.252 -73.2079
42.2981 -101.264 -73.2634
42.4487 -101.265 -73.2645
42.6005 -101.266 -73.2718
42.7601 -101.276 -73.3144
42.9138 -101.28 -73.3298
43.2236 -101.289 -73.3706
43.376 -101.292 -73.3794
43.549 -101.314 -73.482
43.6925 -101.308 -73.4497
43.8413 -101.306 -73.4417
43.9957 -101.31 -73.4591
44.1466 -101.311 -73.4604
44.2896 -101.304 -73.4264
44.4335 -101.298 -73.3966
44.5858 -101.3 -73.404
44.7345 -101.299 -73.3957
44.8802 -101.294 -73.374
45.0218 -101.286 -73.3343
45.1522 -101.267 -73.2455
10.7606 -102.261 -77.1069
10.8898 -102.183 -76.7503
11.0201 -102.11 -76.4185
11.1509 -102.041 -76.103
11.2814 -101.973 -75.7906
11.4126 -101.909 -75.495
11.5461 -101.853 -75.2411
11.6815 -101.805 -75.0225
11.8166 -101.757 -74.8028
11.951 -101.708 -74.5785
12.087 -101.665 -74.3815
12.2269 -101.635 -74.2471
12.3695 -101.614 -74.1524
12.5129 -101.596 -74.072
12.656 -101.578 -73.9901
12.799 -101.559 -73.9069
12.9438 -101.547 -73.8508
13.0908 -101.541 -73.826
13.2381 -101.536 -73.8055
13.3893 -101.543 -73.8381
13.5475 -101.569 -73.9622
13.6936 -101.561 -73.9255
13.8331 -101.534 -73.8018
13.9733 -101.509 -73.6902
14.1249 -101.517 -73.7268
14.278 -101.528 -73.7824
14.4224 -101.515 -73.7255
14.5766 -101.53 -73.7936
14.7293 -101.54 -73.8412
14.8777 -101.538 -73.8355
15.0212 -101.523 -73.7698
15.1622 -101.503 -73.6752
15.3052 -101.487 -73.6053
15.4533 -101.485 -73.5977
15.5998 -101.479 -73.5716
15.7486 -101.479 -73.5721
15.902 -101.49 -73.627
16.0543 -101.499 -73.6674
16.202 -101.495 -73.6541
16.3477 -101.488 -73.6187
16.4955 -101.485 -73.608
16.6381 -101.469 -73.539
16.7777 -101.447 -73.4378
16.9218 -101.436 -73.3873
17.0851 -101.47 -73.5462
17.2353 -101.473 -73.5619
17.3828 -101.47 -73.5474
17.5317 -101.47 -73.5485
17.6765 -101.46 -73.5067
17.818 -101.443 -73.4306
17.9647 -101.439 -73.4097
18.1131 -101.438 -73.4066
18.2604 -101.434 -73.3917
18.4061 -101.427 -73.3611
18.5518 -101.42 -73.3305
18.6986 -101.416 -73.3119
18.8435 -101.408 -73.2739
18.9934 -101.41 -73.2863
19.1451 -101.416 -73.3154
19.2873 -101.402 -73.2516
19.4358 -101.401 -73.2505
19.5883 -101.409 -73.2869
19.7422 -101.42 -73.3363
19.8865 -101.41 -73.2937
20.0264 -101.392 -73.2112
20.1643 -101.37 -73.1105
20.3095 -101.363 -73.0784
20.4615 -101.369 -73.1096
20.6023 -101.354 -73.0383
20.743 -101.338 -72.9659
20.8882 -101.331 -72.9361
21.039 -101.335 -72.956
21.1891 -101.338 -72.97
21.331 -101.325 -72.9108
21.4748 -101.315 -72.8688
21.64 -101.347 -73.0147
21.7823 -101.335 -72.9599
21.9204 -101.315 -72.8692
22.0583 -101.295 -72.777
22.2049 -101.291 -72.7608
22.3552 -101.294 -72.7764
22.5079 -101.302 -72.812
22.6565 -101.302 -72.8126
22.8055 -101.302 -72.8157
22.9556 -101.305 -72.829
23.1056 -101.308 -72.8408
23.2582 -101.314 -72.8734
23.4118 -101.323 -72.9132
23.5641 -101.329 -72.9431
23.7104 -101.325 -72.9237
23.8569 -101.321 -72.9058
24.0064 -101.322 -72.9127
24.1568 -101.325 -72.9256
24.3049 -101.324 -72.9209
24.457 -101.329 -72.9474
24.6078 -101.333 -72.9629
24.7547 -101.33 -72.9488
24.8988 -101.322 -72.9127
25.0419 -101.312 -72.8695
25.1827 -101.299 -72.8093
25.3274 -101.293 -72.7793
25.4814 -101.301 -72.819
25.6348 -101.309 -72.854
25.7839 -101.309 -72.8567
25.9228 -101.293 -72.7833
26.0595 -101.274 -72.6952
26.193 -101.25 -72.5839
26.3456 -101.256 -72.6133
26.4992 -101.264 -72.649
26.6453 -101.26 -72.6304
26.7872 -101.249 -72.5821
26.9288 -101.238 -72.5316
27.0727 -101.231 -72.4984
27.2223 -101.232 -72.5051
27.3821 -101.249 -72.5838
27.5236 -101.239 -72.5336
27.6639 -101.226 -72.4758
27.8088 -101.22 -72.45
27.9576 -101.221 -72.4511
28.1072 -101.222 -72.4576
28.2592 -101.227 -72.4806
28.605 -101.298 -72.8074
28.7519 -101.295 -72.7938
28.9034 -101.299 -72.8115
29.0501 -101.296 -72.7965
29.1978 -101.294 -72.7882
29.3478 -101.295 -72.7953
29.4969 -101.295 -72.7957
29.6415 -101.289 -72.7673
29.7841 -101.28 -72.726
29.9306 -101.277 -72.71
30.0894 -101.291 -72.7735
30.2454 -101.301 -72.8185
30.3774 -101.277 -72.7098
30.5175 -101.265 -72.6536
30.6702 -101.27 -72.6769
30.8277 -101.282 -72.7309
30.9781 -101.284 -72.7396
31.1244 -101.28 -72.7224
31.2689 -101.274 -72.6944
31.4207 -101.278 -72.7114
31.5694 -101.277 -72.7094
31.7164 -101.275 -72.6967
31.8643 -101.273 -72.6894
32.0117 -101.271 -72.6796
32.1576 -101.267 -72.6604
32.3035 -101.263 -72.6413
32.4486 -101.258 -72.6175
32.5945 -101.254 -72.5985
32.7399 -101.25 -72.577
32.8841 -101.243 -72.548
33.0315 -101.242 -72.5388
33.1841 -101.246 -72.5595
33.3413 -101.257 -72.6066
33.5055 -101.276 -72.6942
33.6647 -101.288 -72.7523
33.8146 -101.289 -72.7561
33.9617 -101.287 -72.7434
34.1236 -101.303 -72.8158
34.2848 -101.317 -72.8834
34.4516 -101.339 -72.9824
34.6068 -101.346 -73.0145
34.7459 -101.334 -72.9561
34.9096 -101.351 -73.0356
35.0552 -101.347 -73.0134
35.1994 -101.34 -72.9842
35.3462 -101.337 -72.9691
35.496 -101.338 -72.9701
35.6409 -101.332 -72.9448
35.784 -101.325 -72.9095
35.9411 -101.334 -72.9511
36.0974 -101.342 -72.9873
36.2397 -101.334 -72.948
36.3816 -101.325 -72.907
36.5288 -101.323 -72.8941
36.676 -101.32 -72.8814
36.8195 -101.313 -72.8492
36.9671 -101.311 -72.8386
37.1415 -101.34 -72.97
37.2919 -101.341 -72.9737
37.44 -101.34 -72.9654
37.5949 -101.346 -72.9927
37.7514 -101.354 -73.0276
37.9072 -101.36 -73.0587
38.0571 -101.361 -73.0596
38.2042 -101.358 -73.0456
38.3509 -101.355 -73.0298
38.5026 -101.357 -73.0393
38.6551 -101.36 -73.0528
38.8025 -101.358 -73.0405
38.946 -101.352 -73.0084
39.0915 -101.347 -72.9866
39.2265 -101.331 -72.9118
39.3702 -101.325 -72.8816
39.5176 -101.323 -72.8697
39.6652 -101.321 -72.859
39.8163 -101.322 -72.8652
39.9692 -101.326 -72.8804
40.115 -101.322 -72.8605
40.2599 -101.317 -72.8365
40.4037 -101.311 -72.807
40.544 -101.301 -72.7607
40.69 -101.297 -72.7426
40.8481 -101.306 -72.7823
41.0127 -101.322 -72.8531
41.1718 -101.332 -72.8973
41.3077 -101.318 -72.8303
41.4653 -101.326 -72.8665
41.663 -101.375 -73.0925
41.8395 -101.403 -73.217
41.984 -101.397 -73.19
42.1449 -101.408 -73.2398
42.3063 -101.42 -73.2921
42.4554 -101.419 -73.2863
42.6055 -101.419 -73.2853
42.7589 -101.423 -73.299
42.9152 -101.429 -73.3266
43.0653 -101.429 -73.3251
43.2349 -101.448 -73.4129
43.4027 -101.466 -73.4917
43.5573 -101.47 -73.51
43.6996 -101.463 -73.4726
43.8464 -101.459 -73.4554
44.0009 -101.463 -73.4728
44.1521 -101.464 -73.4756
44.2961 -101.458 -73.4459
44.4463 -101.458 -73.444
44.5956 -101.457 -73.438
44.7428 -101.455 -73.4229
44.8921 -101.454 -73.417
45.031 -101.443 -73.3652
45.1658 -101.428 -73.2958
10.7741 -102.456 -77.3051
10.9017 -102.372 -76.9201
11.0309 -102.295 -76.5693
11.1611 -102.223 -76.2429
11.292 -102.156 -75.935
11.4236 -102.092 -75.6429
11.556 -102.032 -75.3711
11.6902 -101.98 -75.1327
11.8243 -101.928 -74.8974
11.9581 -101.876 -74.6627
12.0936 -101.831 -74.4586
12.2325 -101.798 -74.3074
12.3746 -101.776 -74.2061
12.5173 -101.755 -74.1141
12.6599 -101.735 -74.0247
12.8036 -101.719 -73.9508
12.9494 -101.709 -73.9073
13.0958 -101.701 -73.8744
13.2415 -101.691 -73.8316
13.3881 -101.685 -73.8018
13.5473 -101.714 -73.9399
13.694 -101.707 -73.9105
13.8344 -101.683 -73.8001
13.9764 -101.663 -73.7114
14.125 -101.662 -73.7094
14.2762 -101.669 -73.7405
14.4254 -101.669 -73.7446
14.5774 -101.678 -73.7849
14.7357 -101.703 -73.9025
14.8876 -101.71 -73.9387
15.0289 -101.689 -73.8448
15.1689 -101.666 -73.7381
15.3115 -101.649 -73.6634
15.4572 -101.641 -73.6266
15.6025 -101.632 -73.5852
15.7496 -101.627 -73.5668
15.9022 -101.636 -73.6115
16.0556 -101.648 -73.6644
16.201 -101.639 -73.6255
16.346 -101.629 -73.5818
16.4925 -101.623 -73.5573
16.6361 -101.61 -73.4988
16.7739 -101.584 -73.3787
16.9232 -101.585 -73.386
17.0882 -101.623 -73.5632
17.2366 -101.622 -73.5593
17.385 -101.621 -73.5543
17.5368 -101.628 -73.5867
17.6772 -101.608 -73.4977
17.8186 -101.591 -73.4207
17.9673 -101.59 -73.4205
18.1172 -101.593 -73.432
18.2647 -101.59 -73.4197
18.4094 -101.58 -73.378
18.5536 -101.57 -73.333
18.6996 -101.564 -73.3055
18.8514 -101.571 -73.3367
19.0042 -101.579 -73.3769
19.1453 -101.562 -73.3019
19.2892 -101.552 -73.2553
19.4386 -101.553 -73.2615
19.5922 -101.563 -73.3085
19.7513 -101.584 -73.4073
19.8913 -101.566 -73.3238
20.0272 -101.539 -73.2032
20.1641 -101.515 -73.0928
20.312 -101.514 -73.0868
20.465 -101.522 -73.1268
20.6074 -101.509 -73.0692
20.7483 -101.494 -72.9995
20.8943 -101.489 -72.9759
21.0458 -101.494 -73.0026
21.1928 -101.491 -72.9881
21.3306 -101.47 -72.8922
21.4742 -101.46 -72.8492
21.6405 -101.494 -73.0042
21.7823 -101.481 -72.945
21.9227 -101.465 -72.8743
22.0643 -101.452 -72.8148
22.209 -101.445 -72.7821
22.3579 -101.445 -72.7854
22.5078 -101.448 -72.7971
22.6554 -101.446 -72.7891
22.8065 -101.45 -72.8107
22.9605 -101.46 -72.8555
23.1086 -101.459 -72.8508
23.2568 -101.458 -72.8476
23.4099 -101.466 -72.8843
23.5678 -101.482 -72.9587
23.7153 -101.48 -72.9496
24.0117 -101.478 -72.9408
24.1601 -101.477 -72.9385
24.3056 -101.471 -72.913
24.4548 -101.472 -72.9164
24.6066 -101.477 -72.9408
24.754 -101.475 -72.9297
24.8997 -101.47 -72.9065
25.0443 -101.463 -72.8745
25.191 -101.459 -72.8592
25.3374 -101.455 -72.8414
25.4892 -101.46 -72.8646
25.6405 -101.464 -72.8836
25.7893 -101.464 -72.8835
25.9316 -101.454 -72.8358
26.0667 -101.432 -72.7354
26.2035 -101.413 -72.6478
26.3479 -101.406 -72.6167
26.5022 -101.415 -72.6583
26.6509 -101.415 -72.6577
26.7932 -101.405 -72.6124
26.9346 -101.393 -72.5604
27.0784 -101.386 -72.5266
27.2262 -101.385 -72.5203
27.3773 -101.388 -72.5378
27.5246 -101.386 -72.5279
27.6682 -101.379 -72.4929
27.8157 -101.377 -72.485
27.9676 -101.382 -72.5075
28.1164 -101.382 -72.5086
28.2653 -101.382 -72.5098
28.4303 -101.406 -72.6207
28.6125 -101.455 -72.8463
28.7715 -101.47 -72.9136
28.9125 -101.458 -72.8597
29.0534 -101.447 -72.8063
29.1995 -101.443 -72.7875
29.3503 -101.445 -72.7993
29.5017 -101.449 -72.8153
29.6489 -101.446 -72.8034
29.7924 -101.439 -72.7683
29.9376 -101.433 -72.7435
30.0883 -101.436 -72.7546
30.2372 -101.436 -72.7539
30.3675 -101.41 -72.6352
30.5124 -101.405 -72.6096
30.6699 -101.416 -72.6638
30.827 -101.427 -72.7147
30.9808 -101.434 -72.7449
31.1302 -101.435 -72.7472
31.2773 -101.432 -72.7347
31.4246 -101.43 -72.7241
31.571 -101.426 -72.7077
31.7179 -101.424 -72.6942
31.8665 -101.423 -72.6917
32.0133 -101.42 -72.6776
32.1573 -101.414 -72.6472
32.3019 -101.408 -72.6203
32.4488 -101.405 -72.607
32.5968 -101.404 -72.6009
32.743 -101.4 -72.5839
32.8875 -101.395 -72.5572
33.0351 -101.393 -72.5484
33.187 -101.397 -72.5651
33.3434 -101.406 -72.608
33.5062 -101.424 -72.6871
33.6685 -101.44 -72.7629
33.8183 -101.441 -72.7664
33.9635 -101.436 -72.7428
34.1376 -101.467 -72.8851
34.297 -101.48 -72.9419
34.4531 -101.488 -72.9797
34.6132 -101.501 -73.0397
34.7471 -101.482 -72.9519
34.9174 -101.508 -73.0682
35.0589 -101.498 -73.0236
35.2016 -101.49 -72.9853
35.3451 -101.483 -72.9518
35.4983 -101.488 -72.9724
35.6458 -101.485 -72.961
35.7874 -101.476 -72.9177
35.9473 -101.489 -72.9743
36.1071 -101.501 -73.0294
36.2437 -101.486 -72.959
36.3868 -101.478 -72.9239
36.5361 -101.478 -72.9228
36.6849 -101.478 -72.9184
36.8295 -101.472 -72.8917
36.978 -101.471 -72.8859
37.1537 -101.501 -73.0239
37.2958 -101.493 -72.9835
37.4445 -101.492 -72.9782
37.6017 -101.501 -73.0175
37.7612 -101.512 -73.0682
37.9189 -101.521 -73.1089
38.0691 -101.522 -73.1109
38.2128 -101.515 -73.0793
38.3597 -101.512 -73.0645
38.5114 -101.515 -73.074
38.6641 -101.518 -73.0883
38.8085 -101.512 -73.0607
38.9474 -101.5 -73.0053
39.0911 -101.494 -72.974
39.235 -101.488 -72.9445
39.3803 -101.483 -72.9219
39.5276 -101.481 -72.9094
39.6751 -101.479 -72.898
39.8253 -101.479 -72.8993
39.9736 -101.478 -72.8919
40.1187 -101.473 -72.8685
40.2644 -101.469 -72.8485
40.4075 -101.462 -72.8154
40.5494 -101.454 -72.7773
40.7017 -101.457 -72.7893
40.8573 -101.463 -72.817
41.0175 -101.475 -72.8665
41.1738 -101.481 -72.8969
41.3183 -101.476 -72.8708
41.4866 -101.495 -72.9581
41.6374 -101.497 -72.9615
41.8182 -101.529 -73.1066
41.99 -101.551 -73.2085
42.1487 -101.56 -73.2482
42.3045 -101.566 -73.2738
42.4583 -101.57 -73.2899
42.6104 -101.572 -73.298
42.7585 -101.57 -73.2879
42.9132 -101.575 -73.3077
43.0733 -101.585 -73.352
43.2247 -101.586 -73.3563
43.3938 -101.605 -73.4414
43.548 -101.609 -73.4581
43.6939 -101.605 -73.4372
43.8421 -101.603 -73.4263
44.0027 -101.613 -73.4714
44.1589 -101.619 -73.4966
44.3086 -101.618 -73.4922
44.4611 -101.621 -73.5008
44.6023 -101.612 -73.4586
44.7453 -101.605 -73.4248
44.8957 -101.605 -73.4236
45.0396 -101.599 -73.3938
45.1768 -101.587 -73.3346
45.3075 -101.568 -73.2475
45.4417 -101.553 -73.1762
10.913 -102.559 -77.0817
11.0411 -102.478 -76.7118
11.1703 -102.402 -76.3671
11.3031 -102.34 -76.0861
11.4358 -102.279 -75.8117
11.5681 -102.219 -75.5359
11.7009 -102.161 -75.2739
11.8335 -102.104 -75.0142
11.9669 -102.05 -74.772
12.1027 -102.006 -74.5709
12.2415 -101.972 -74.4168
12.3819 -101.944 -74.2899
12.5225 -101.917 -74.168
12.6644 -101.894 -74.0669
12.8091 -101.881 -74.0077
12.9558 -101.874 -73.9763
13.1015 -101.863 -73.9317
13.2437 -101.843 -73.8414
13.3973 -101.857 -73.9049
13.5533 -101.877 -74.0005
13.6965 -101.86 -73.9248
13.8367 -101.835 -73.8102
13.979 -101.816 -73.7255
14.1251 -101.808 -73.6908
14.2751 -101.811 -73.7064
14.4279 -101.822 -73.7579
14.579 -101.828 -73.7867
14.7389 -101.857 -73.9228
14.8906 -101.864 -73.9566
15.0311 -101.841 -73.8534
15.1726 -101.821 -73.7643
15.3161 -101.807 -73.6994
15.4593 -101.792 -73.6334
15.6045 -101.782 -73.5906
15.751 -101.776 -73.5653
15.9005 -101.778 -73.5732
16.0559 -101.794 -73.65
16.2027 -101.789 -73.6272
16.3443 -101.771 -73.5455
16.492 -101.768 -73.5343
16.6339 -101.751 -73.4573
16.777 -101.737 -73.3958
16.9311 -101.749 -73.4548
17.0877 -101.768 -73.5414
17.2361 -101.767 -73.5362
17.3845 -101.766 -73.533
17.5309 -101.76 -73.5076
17.6712 -101.74 -73.4182
17.8198 -101.739 -73.4161
17.9745 -101.753 -73.4789
18.1251 -101.756 -73.4973
18.2702 -101.748 -73.4588
18.4112 -101.73 -73.3802
18.5542 -101.717 -73.3225
18.7016 -101.714 -73.3095
18.8522 -101.718 -73.3287
18.9992 -101.714 -73.3115
19.1455 -101.709 -73.2882
19.2915 -101.703 -73.2619
19.4409 -101.704 -73.2688
19.5902 -101.705 -73.2743
19.7528 -101.734 -73.4066
19.894 -101.718 -73.3342
20.0297 -101.69 -73.2108
20.1699 -101.673 -73.1323
20.3179 -101.672 -73.1264
20.4683 -101.675 -73.1418
20.6127 -101.666 -73.103
20.7528 -101.649 -73.0252
20.8962 -101.638 -72.9787
21.0483 -101.645 -73.0102
21.1951 -101.641 -72.9936
21.3299 -101.615 -72.8719
21.4886 -101.634 -72.9611
21.6426 -101.644 -73.0084
21.7849 -101.632 -72.9533
21.9289 -101.623 -72.9138
22.0725 -101.613 -72.8707
22.2156 -101.603 -72.8242
22.3613 -101.598 -72.7998
22.51 -101.598 -72.8011
22.6565 -101.594 -72.7844
22.8072 -101.598 -72.8021
22.9608 -101.607 -72.8438
23.1095 -101.607 -72.8448
23.257 -101.604 -72.8354
23.4065 -101.606 -72.8431
23.5608 -101.616 -72.8891
23.7221 -101.638 -72.9903
23.8704 -101.637 -72.9863
24.0245 -101.646 -73.0293
24.1678 -101.637 -72.986
24.3108 -101.627 -72.9401
24.4575 -101.623 -72.9242
24.6069 -101.624 -72.9293
24.7538 -101.621 -72.9147
24.8984 -101.614 -72.8832
25.0411 -101.604 -72.837
25.1886 -101.601 -72.8275
25.3403 -101.606 -72.8504
25.4921 -101.611 -72.8729
25.639 -101.608 -72.859
25.7832 -101.601 -72.8254
25.9303 -101.598 -72.8133
26.0716 -101.586 -72.7581
26.2093 -101.568 -72.6772
26.3461 -101.549 -72.5907
26.5044 -101.564 -72.6612
26.6597 -101.575 -72.709
26.7986 -101.559 -72.6381
26.9394 -101.547 -72.5823
27.0838 -101.54 -72.5519
27.231 -101.538 -72.5418
27.3801 -101.539 -72.5448
27.5268 -101.536 -72.5313
27.6698 -101.527 -72.4917
27.8197 -101.529 -72.5002
27.9743 -101.538 -72.5416
28.1244 -101.54 -72.5508
28.2786 -101.548 -72.5884
28.4439 -101.573 -72.7005
28.6124 -101.602 -72.8332
28.7752 -101.622 -72.9262
28.9197 -101.616 -72.8962
29.0581 -101.6 -72.8253
29.2024 -101.593 -72.7945
29.353 -101.596 -72.8052
29.5058 -101.602 -72.8306
29.6532 -101.599 -72.8196
29.7977 -101.593 -72.7907
29.9426 -101.587 -72.7637
30.0877 -101.582 -72.7391
30.2296 -101.572 -72.6936
30.3664 -101.555 -72.6162
30.5131 -101.552 -72.6022
30.6676 -101.56 -72.6373
30.829 -101.577 -72.7158
30.9873 -101.59 -72.7735
31.138 -101.592 -72.7838
31.2854 -101.59 -72.7732
31.4305 -101.585 -72.7489
31.5745 -101.578 -72.7175
31.721 -101.574 -72.7017
31.8691 -101.573 -72.6959
32.0142 -101.568 -72.6716
32.1574 -101.56 -72.6362
32.3026 -101.555 -72.6132
32.4509 -101.555 -72.6087
32.6 -101.555 -72.6086
32.7477 -101.553 -72.6007
32.8936 -101.549 -72.5816
33.0417 -101.548 -72.5761
33.195 -101.554 -72.6011
33.3521 -101.564 -72.6477
33.5135 -101.579 -72.7184
33.6748 -101.595 -72.7884
33.8285 -101.601 -72.8141
33.9842 -101.609 -72.8505
34.1563 -101.637 -72.9806
34.3158 -101.65 -73.0376
34.4499 -101.631 -72.9504
34.6084 -101.643 -73.0016
34.7554 -101.64 -72.9876
34.9119 -101.648 -73.0267
35.0621 -101.649 -73.0302
35.2107 -101.648 -73.0251
35.3552 -101.642 -72.9969
35.4992 -101.636 -72.9663
35.6501 -101.638 -72.9739
35.7954 -101.633 -72.9506
35.946 -101.634 -72.9562
36.1034 -101.644 -72.999
36.2463 -101.636 -72.9625
36.3916 -101.631 -72.9393
36.5403 -101.631 -72.9347
36.6881 -101.629 -72.9247
36.8366 -101.628 -72.9192
37.0042 -101.649 -73.0144
37.1553 -101.65 -73.0215
37.2811 -101.623 -72.896
37.4438 -101.638 -72.9641
37.6051 -101.652 -73.0251
37.7659 -101.665 -73.0821
37.9267 -101.677 -73.139
38.077 -101.678 -73.1415
38.22 -101.671 -73.1062
38.3652 -101.666 -73.0821
38.5152 -101.666 -73.0831
38.6677 -101.669 -73.0962
38.8093 -101.66 -73.0542
38.9433 -101.643 -72.9742
39.0898 -101.64 -72.9573
39.2451 -101.646 -72.9849
39.3926 -101.644 -72.9729
39.5368 -101.638 -72.9452
39.6849 -101.636 -72.9364
39.8354 -101.637 -72.9392
39.983 -101.635 -72.9284
40.1273 -101.63 -72.9007
40.2717 -101.624 -72.8739
40.4116 -101.614 -72.8254
40.5523 -101.604 -72.7813
40.7111 -101.614 -72.8246
40.8694 -101.623 -72.8652
41.0267 -101.632 -72.9004
41.1851 -101.641 -72.9409
41.3486 -101.655 -73.0057
41.5097 -101.667 -73.058
41.6388 -101.646 -72.9586
41.8165 -101.674 -73.0891
41.992 -101.701 -73.208
42.152 -101.711 -73.2538
42.3081 -101.717 -73.2807
42.4632 -101.723 -73.3029
42.6161 -101.726 -73.3151
42.767 -101.727 -73.3174
42.9242 -101.734 -73.3486
43.087 -101.746 -73.4054
43.2352 -101.745 -73.3951
43.3914 -101.751 -73.421
43.5441 -101.753 -73.4308
43.6914 -101.75 -73.4162
43.8422 -101.751 -73.4175
44.0137 -101.772 -73.5114
44.178 -101.786 -73.5731
44.3313 -101.789 -73.5846
44.4717 -101.779 -73.5385
44.607 -101.765 -73.4698
44.7525 -101.76 -73.4473
44.9063 -101.763 -73.461
45.0532 -101.76 -73.4444
45.1877 -101.745 -73.3734
45.3232 -101.731 -73.307
45.4556 -101.714 -73.2276
45.6112 -101.719 -73.2493
11.0497 -102.654 -76.8259
11.1784 -102.576 -76.473
11.3142 -102.524 -76.2382
11.4505 -102.476 -76.018
11.5829 -102.415 -75.7416
11.7161 -102.357 -75.4831
11.8455 -102.289 -75.174
11.9771 -102.23 -74.9038
12.1121 -102.182 -74.688
12.2513 -102.149 -74.5399
12.3899 -102.115 -74.3849
12.5278 -102.079 -74.2234
12.6697 -102.056 -74.1215
12.8149 -102.044 -74.0675
12.9624 -102.039 -74.0473
13.1081 -102.029 -74.0024
13.2493 -102.005 -73.8978
13.398 -102.004 -73.8949
13.5517 -102.018 -73.9593
13.6998 -102.015 -73.9486
13.84 -101.99 -73.8337
13.9821 -101.97 -73.7461
14.1271 -101.959 -73.697
14.2719 -101.947 -73.6465
14.4206 -101.947 -73.647
14.5795 -101.974 -73.7731
