58.7174 -97.3808 8.1647
58.8298 -97.3887 8.117
58.9391 -97.3936 8.0865
59.0467 -97.3969 8.0653
59.1547 -97.4004 8.0429
59.2619 -97.4032 8.0244
59.3671 -97.4041 8.0171
59.4708 -97.4035 8.0182
59.5753 -97.4037 8.015
59.6818 -97.4058 8.0009
59.7883 -97.4078 7.9868
59.893 -97.4082 7.9827
59.9964 -97.4073 7.9856
60.0998 -97.4064 7.9884
60.2045 -97.4068 7.9841
60.3113 -97.4091 7.9687
60.4189 -97.4121 7.9491
60.5249 -97.4136 7.9383
60.6296 -97.4138 7.9347
60.7369 -97.4165 7.917
60.8508 -97.4254 7.8639
60.9709 -97.44 7.778
61.0925 -97.4559 7.6847
61.2104 -97.4683 7.6113
61.3229 -97.4757 7.5671
61.4318 -97.4797 7.5421
61.5391 -97.4821 7.5258
61.6469 -97.4851 7.5066
61.7589 -97.4919 7.4657
61.8785 -97.5055 7.3853
62.0037 -97.5243 7.2755
62.1288 -97.5428 7.167
62.2502 -97.558 7.078
62.3666 -97.5685 7.0159
62.4786 -97.575 6.9762
62.5904 -97.5812 6.9385
62.7066 -97.5915 6.8777
62.8296 -97.6078 6.7822
62.9577 -97.6285 6.6611
63.0899 -97.6529 6.5193
63.2317 -97.6858 6.3286
63.3847 -97.7284 6.0818
63.542 -97.7747 5.8142
63.6917 -97.8142 5.5859
63.8247 -97.8386 5.4439
63.9504 -97.8563 5.3398
64.0727 -97.8712 5.2527
64.4284 -97.9053 5.0512
64.5669 -97.934 4.8842
64.6984 -97.9565 4.7534
64.8274 -97.9767 4.6355
64.9624 -98.002 4.4884
65.1039 -98.0329 4.3091
33.01 -98.1196 5.3574
33.0985 -98.0843 5.5545
33.198 -98.0737 5.6107
33.2957 -98.0594 5.688
33.3937 -98.0458 5.7614
33.4922 -98.0333 5.8287
33.5921 -98.024 5.8771
33.6936 -98.0182 5.9059
33.7949 -98.0122 5.9361
33.8941 -98.0015 5.9929
33.991 -97.9864 6.0753
34.087 -97.9692 6.1691
34.183 -97.9522 6.2617
34.2806 -97.9387 6.3347
34.3799 -97.9289 6.3865
34.4792 -97.9192 6.4376
34.5778 -97.908 6.4975
34.676 -97.8963 6.5601
34.7743 -97.8848 6.6218
34.8727 -97.8736 6.6815
34.972 -97.8641 6.7312
35.0727 -97.8577 6.7638
35.1744 -97.8534 6.7842
35.2762 -97.8494 6.8028
35.3779 -97.845 6.8242
35.4794 -97.8405 6.8458
35.5808 -97.8356 6.8696
35.681 -97.8284 6.9065
35.7798 -97.8187 6.9579
35.8791 -97.8099 7.004
35.98 -97.8043 7.0322
36.0814 -97.7996 7.0551
36.1826 -97.7946 7.0793
36.2837 -97.7896 7.1038
36.3846 -97.7842 7.1311
36.4855 -97.7788 7.158
36.587 -97.7745 7.1786
36.689 -97.7712 7.193
36.7914 -97.7686 7.2042
36.8939 -97.7664 7.2128
36.997 -97.7651 7.216
37.1008 -97.7653 7.2114
37.2056 -97.7671 7.1968
37.3104 -97.769 7.1821
37.414 -97.7688 7.1793
37.5169 -97.7672 7.1849
37.6193 -97.7646 7.1957
37.7203 -97.7596 7.2202
37.8195 -97.7514 7.2631
37.9179 -97.7418 7.3144
38.0161 -97.732 7.3664
38.1143 -97.7221 7.4189
38.213 -97.7133 7.4655
38.313 -97.7068 7.4984
38.4135 -97.7012 7.5268
38.5123 -97.6927 7.5713
38.6096 -97.6816 7.631
38.7069 -97.6706 7.6898
38.8048 -97.6608 7.7421
38.9026 -97.6508 7.7952
39.0006 -97.6412 7.8465
39.1002 -97.6344 7.8816
39.2015 -97.6307 7.899
39.3022 -97.6258 7.9229
39.4001 -97.6162 7.974
39.4952 -97.6021 8.0513
39.5832 -97.5762 8.1952
39.6731 -97.5537 8.3201
39.7659 -97.5361 8.417
39.8591 -97.5192 8.5093
39.9524 -97.5026 8.6009
40.0442 -97.4838 8.7046
40.1341 -97.4619 8.8257
40.225 -97.4418 8.9371
40.3214 -97.4308 8.9961
40.4211 -97.4251 9.0247
40.5194 -97.4175 9.065
40.6171 -97.4086 9.1118
40.7142 -97.3991 9.1627
40.8097 -97.3869 9.2288
40.9048 -97.3742 9.2976
41.002 -97.365 9.3466
41.1016 -97.3595 9.3746
41.2015 -97.3546 9.3987
41.3003 -97.3479 9.4335
41.3966 -97.3375 9.4895
41.4883 -97.3199 9.5863
41.5766 -97.2972 9.7125
41.6656 -97.2757 9.8316
41.7573 -97.2586 9.9261
41.8511 -97.2447 10.0021
41.9465 -97.2334 10.0629
42.0429 -97.2236 10.1154
42.1393 -97.2139 10.1673
42.2357 -97.2043 10.2186
42.3328 -97.1957 10.264
42.4306 -97.1884 10.3026
42.5285 -97.1811 10.3406
42.6259 -97.1732 10.3822
42.7234 -97.1656 10.4225
42.8218 -97.1592 10.4555
42.9217 -97.1552 10.4751
43.0227 -97.1526 10.4864
43.1244 -97.1513 10.4907
43.2282 -97.1528 10.4783
43.3325 -97.1552 10.4612
43.4347 -97.1545 10.4619
43.5358 -97.1522 10.4718
43.6374 -97.1506 10.4775
43.7393 -97.1494 10.4812
43.8415 -97.1487 10.4817
43.9445 -97.1491 10.4759
44.0475 -97.1496 10.4702
44.1491 -97.1479 10.4762
44.2494 -97.1445 10.4927
44.3499 -97.1413 10.5072
44.4512 -97.1394 10.5147
44.5534 -97.1387 10.5157
44.6557 -97.1381 10.5156
44.7577 -97.1371 10.5183
44.8596 -97.136 10.5212
44.9622 -97.1357 10.5196
45.0657 -97.1369 10.5098
45.1703 -97.1393 10.4924
45.2747 -97.1416 10.4765
45.378 -97.1423 10.4688
45.4809 -97.1424 10.465
45.5836 -97.1423 10.4624
45.686 -97.1418 10.462
45.7889 -97.142 10.4578
45.8933 -97.1442 10.4422
45.999 -97.1481 10.4166
46.1049 -97.1522 10.3902
46.2106 -97.156 10.365
46.317 -97.1607 10.3351
46.4236 -97.1657 10.3034
46.5292 -97.1692 10.2801
46.6332 -97.1706 10.2688
46.7359 -97.1704 10.2671
46.838 -97.1693 10.2701
46.9401 -97.1683 10.2725
47.0435 -97.169 10.2659
47.149 -97.1723 10.2438
47.2551 -97.1764 10.217
47.3597 -97.1785 10.2023
47.4625 -97.1783 10.2
47.5655 -97.1783 10.1969
47.669 -97.1791 10.1895
47.7724 -97.1796 10.1834
47.8762 -97.1807 10.1743
47.982 -97.1842 10.1512
48.0893 -97.1896 10.1173
48.1969 -97.1954 10.081
48.3043 -97.2008 10.047
48.4105 -97.2047 10.0217
48.5155 -97.2071 10.0048
48.6207 -97.2097 9.987
48.7265 -97.2131 9.9648
48.8316 -97.2156 9.9473
48.935 -97.216 9.9425
49.0369 -97.2145 9.9479
49.1386 -97.2127 9.955
49.2421 -97.2132 9.9495
49.3487 -97.2174 9.9223
49.4565 -97.223 9.8875
49.5626 -97.2266 9.8636
49.6671 -97.2282 9.852
49.7709 -97.229 9.8445
49.8747 -97.2297 9.8377
49.9784 -97.2302 9.8314
50.0825 -97.2313 9.8224
50.1875 -97.2335 9.8072
50.2929 -97.236 9.7899
50.3983 -97.2386 9.7721
50.5042 -97.2417 9.7512
50.6099 -97.2446 9.7319
50.7141 -97.2458 9.7225
50.8175 -97.2458 9.7192
50.922 -97.2473 9.7081
51.0281 -97.2506 9.6864
51.1341 -97.2536 9.6661
51.2386 -97.2551 9.655
51.3426 -97.2559 9.6479
51.4477 -97.2579 9.6334
51.5538 -97.261 9.6126
51.6593 -97.2635 9.5956
51.7643 -97.2653 9.5825
51.8689 -97.2667 9.5718
51.9729 -97.2674 9.5652
52.0764 -97.2676 9.5612
52.1801 -97.2679 9.5565
52.2841 -97.2685 9.5504
52.3882 -97.2694 9.5427
52.493 -97.2709 9.5313
52.5993 -97.2741 9.5102
52.7079 -97.2799 9.4743
52.8178 -97.2871 9.4307
52.9262 -97.2925 9.397
53.0318 -97.2948 9.381
53.1368 -97.2966 9.3683
53.2433 -97.2998 9.3473
53.3494 -97.3027 9.3282
53.4537 -97.3035 9.321
53.5574 -97.3036 9.3173
53.6614 -97.3042 9.3116
53.7656 -97.3048 9.3052
53.8703 -97.306 9.2958
53.9747 -97.307 9.2878
54.0782 -97.3068 9.2861
54.182 -97.307 9.2821
54.2875 -97.3092 9.2673
54.3944 -97.3127 9.2449
54.501 -97.3159 9.224
54.607 -97.3185 9.2066
54.7136 -97.3215 9.1863
54.8209 -97.3254 9.1618
54.9279 -97.3289 9.1389
55.0358 -97.3335 9.1106
55.1465 -97.3409 9.0656
55.2577 -97.3487 9.0181
55.3648 -97.3522 8.9955
55.4668 -97.3504 9.0036
55.5678 -97.3475 9.0176
55.6711 -97.347 9.0179
55.7759 -97.3482 9.0088
55.8808 -97.3493 8.9998
55.9857 -97.3504 8.9908
56.0912 -97.3522 8.978
56.197 -97.3543 8.9638
56.3025 -97.3561 8.9512
56.4088 -97.3586 8.9342
56.5171 -97.3632 8.9058
56.6263 -97.3687 8.8718
56.736 -97.3746 8.8355
56.848 -97.3828 8.7861
56.9629 -97.394 8.7199
57.0786 -97.4059 8.649
57.1938 -97.4172 8.5823
57.3076 -97.4271 8.5231
57.419 -97.4345 8.4784
57.5264 -97.4379 8.4568
57.6308 -97.4382 8.4523
57.7358 -97.4391 8.445
57.8448 -97.4441 8.4143
57.958 -97.453 8.3606
58.0716 -97.4624 8.3045
58.1832 -97.4698 8.26
58.2915 -97.4739 8.2341
58.3963 -97.4745 8.2283
58.5009 -97.4749 8.2239
58.6092 -97.4789 8.1985
58.7206 -97.4859 8.1561
58.8324 -97.4933 8.1116
58.9423 -97.4988 8.0776
59.0496 -97.5018 8.0584
59.156 -97.5038 8.0445
59.2626 -97.5061 8.0293
59.3689 -97.508 8.0162
59.4732 -97.508 8.0139
59.5766 -97.5071 8.017
59.6814 -97.5076 8.0117
59.7873 -97.5091 8.0011
59.8923 -97.5097 7.9952
59.9966 -97.5097 7.9932
60.1011 -97.5098 7.9901
60.2068 -97.5111 7.9806
60.3137 -97.5135 7.9649
60.42 -97.5153 7.9525
60.5248 -97.5158 7.9476
60.6302 -97.5166 7.9403
60.7386 -97.5204 7.9166
60.8516 -97.5285 7.8682
60.9689 -97.5405 7.7974
61.0875 -97.5536 7.7203
61.2034 -97.5642 7.6573
61.3158 -97.5715 7.6137
61.4259 -97.5766 7.5822
61.5349 -97.5807 7.5568
61.6443 -97.5851 7.5294
61.7573 -97.5928 7.4832
61.8765 -97.6062 7.4044
62 -97.6235 7.3037
62.1231 -97.6403 7.2054
62.243 -97.6541 7.1241
62.3598 -97.665 7.0595
62.4741 -97.6736 7.0082
62.5881 -97.6819 6.959
62.7046 -97.6924 6.8966
62.826 -97.7072 6.8098
62.9515 -97.7258 6.7017
63.0796 -97.7465 6.5809
63.2141 -97.7729 6.4276
63.3606 -97.8099 6.214
63.5148 -97.8537 5.9615
63.6657 -97.8942 5.7273
63.8053 -97.9246 5.5512
63.9379 -97.9486 5.4118
64.0667 -97.9693 5.2918
64.1835 -97.9791 5.2333
64.2999 -97.9886 5.177
64.425 -98.0058 5.0769
64.5555 -98.0275 4.9504
64.6965 -98.0584 4.7718
64.8362 -98.088 4.6002
64.9681 -98.1107 4.4682
33.2173 -98.2179 5.3838
33.3094 -98.1909 5.533
33.5053 -98.1631 5.6829
33.6064 -98.1564 5.7168
33.7088 -98.1523 5.7358
33.8103 -98.1465 5.7647
33.9092 -98.1351 5.8254
34.0058 -98.1189 5.9133
34.1014 -98.1009 6.0118
34.1969 -98.0826 6.1119
34.2935 -98.0669 6.1968
34.3922 -98.0557 6.2567
34.4915 -98.0458 6.3089
34.5905 -98.0355 6.3637
34.6893 -98.0247 6.421
34.7879 -98.0137 6.4796
34.8867 -98.0031 6.5356
34.9863 -97.9944 6.5813
35.0874 -97.9886 6.6101
35.1896 -97.9852 6.6253
35.292 -97.9822 6.6383
35.3941 -97.9785 6.6554
35.4959 -97.9742 6.6755
35.5972 -97.9691 6.7009
35.6971 -97.9613 6.7411
35.7955 -97.9505 6.7988
35.8937 -97.9395 6.8574
35.9933 -97.9311 6.901
36.0937 -97.9244 6.9349
36.1939 -97.9176 6.97
36.2943 -97.9109 7.0042
36.3952 -97.9055 7.031
36.497 -97.9015 7.0495
36.599 -97.8982 7.0646
36.7011 -97.8951 7.0785
36.8037 -97.8928 7.0875
36.9068 -97.8915 7.091
37.01 -97.8904 7.093
37.1139 -97.8907 7.0878
37.2193 -97.8936 7.0672
37.3253 -97.8976 7.0408
37.43 -97.8991 7.0282
37.5337 -97.8988 7.0258
37.6372 -97.8982 7.0254
37.7391 -97.8948 7.0408
37.8388 -97.8874 7.0793
37.9378 -97.8787 7.1251
38.0368 -97.8701 7.1701
38.1358 -97.8614 7.2157
38.2357 -97.8546 7.2505
38.3377 -97.8514 7.265
38.439 -97.8471 7.2856
38.5377 -97.8383 7.3321
38.6358 -97.8283 7.3853
38.7342 -97.819 7.4343
38.832 -97.8088 7.4889
38.9292 -97.7977 7.5481
39.0276 -97.7886 7.5964
39.1279 -97.7828 7.6258
39.229 -97.7785 7.6461
39.3295 -97.7731 7.6737
39.4282 -97.7647 7.7173
39.5252 -97.7535 7.7775
39.6186 -97.7365 7.8709
39.7091 -97.7146 7.9919
39.8007 -97.6947 8.1014
39.8939 -97.6777 8.1948
39.988 -97.6622 8.2794
40.0809 -97.6449 8.3741
40.1714 -97.6237 8.4912
40.2608 -97.6009 8.6176
40.3528 -97.5825 8.7187
40.4474 -97.5685 8.7949
40.5419 -97.5544 8.8717
40.6383 -97.5435 8.9303
40.7362 -97.5349 8.9754
40.8332 -97.5251 9.0279
40.93 -97.515 9.082
41.0287 -97.5079 9.1184
41.1292 -97.5037 9.1394
41.2289 -97.4983 9.1662
41.3261 -97.4891 9.2154
41.4216 -97.4771 9.2801
41.5145 -97.4613 9.3667
41.6035 -97.4394 9.4877
41.6915 -97.4162 9.6167
41.7805 -97.3947 9.7358
41.8711 -97.3758 9.8396
41.9649 -97.3618 9.9158
42.0615 -97.3524 9.9663
42.1586 -97.3436 10.0129
42.2554 -97.3345 10.0609
42.3529 -97.3265 10.1034
42.4508 -97.3191 10.1423
42.5477 -97.3103 10.1888
42.6439 -97.3004 10.2417
42.7405 -97.2913 10.2901
42.8383 -97.284 10.3282
42.9373 -97.2785 10.3566
43.0373 -97.2744 10.3761
43.1386 -97.2724 10.3845
43.2426 -97.2743 10.3702
43.3473 -97.2771 10.3508
43.449 -97.2757 10.3555
43.549 -97.2716 10.3753
43.6494 -97.2682 10.3913
43.7508 -97.2664 10.3986
43.8532 -97.2658 10.3984
43.9557 -97.2655 10.3969
44.0574 -97.264 10.402
44.1576 -97.2605 10.4189
44.2568 -97.2555 10.4442
44.3563 -97.2509 10.4669
44.4569 -97.2478 10.4814
44.5583 -97.246 10.4882
44.6604 -97.2451 10.49
44.7625 -97.2442 10.4918
44.8646 -97.2433 10.4938
44.9667 -97.2425 10.4953
45.0698 -97.2429 10.4897
45.1746 -97.2458 10.47
45.2796 -97.2488 10.4496
45.383 -97.2497 10.4414
45.4857 -97.2495 10.4392
45.5881 -97.2491 10.4384
45.6903 -97.2482 10.4401
45.7928 -97.2477 10.4396
45.8965 -97.249 10.4293
46.0014 -97.2518 10.4101
46.1066 -97.2551 10.3884
46.2121 -97.2586 10.3648
46.3183 -97.263 10.3366
46.4246 -97.2676 10.3075
46.5303 -97.2713 10.2832
46.6347 -97.2733 10.2688
46.7375 -97.2731 10.2663
46.8395 -97.2719 10.2701
46.9415 -97.2707 10.2739
47.0443 -97.2706 10.2716
47.1488 -97.2726 10.2568
47.2543 -97.276 10.2347
47.3593 -97.2787 10.2162
47.4637 -97.2805 10.2027
47.5684 -97.2828 10.1867
47.6731 -97.285 10.1711
47.7766 -97.2857 10.1638
47.88 -97.2862 10.1582
47.985 -97.2888 10.1403
48.0917 -97.2934 10.1108
48.1987 -97.2984 10.0793
48.3055 -97.3032 10.0493
48.4117 -97.3071 10.024
48.5167 -97.3096 10.0067
48.6213 -97.3114 9.9935
48.7263 -97.3138 9.9764
48.8315 -97.3164 9.959
48.9351 -97.3169 9.9527
49.037 -97.3155 9.9582
49.139 -97.3141 9.963
49.2431 -97.3153 9.9533
49.3499 -97.3197 9.925
49.4573 -97.3249 9.8924
49.5627 -97.3277 9.8736
49.6665 -97.3284 9.8666
49.7703 -97.3292 9.8594
49.8746 -97.3305 9.8491
49.9789 -97.3319 9.8382
50.0838 -97.3338 9.8242
50.1889 -97.3362 9.8081
50.2936 -97.3379 9.7952
50.3984 -97.3398 9.7815
50.5039 -97.3424 9.7637
50.609 -97.3447 9.7482
50.7128 -97.3453 9.7419
50.8157 -97.3449 9.7414
50.9201 -97.3461 9.7315
51.0266 -97.3499 9.7069
51.1333 -97.3539 9.6814
51.2384 -97.356 9.6668
51.3424 -97.3568 9.6594
51.4473 -97.3586 9.6465
51.5536 -97.3619 9.6244
51.66 -97.3655 9.6015
51.7654 -97.3678 9.5852
51.8696 -97.3687 9.5775
51.973 -97.3688 9.5744
52.0768 -97.3692 9.5689
52.1811 -97.3703 9.5603
52.2853 -97.3711 9.5528
52.3892 -97.3717 9.5469
52.4932 -97.3724 9.5403
52.5987 -97.3747 9.5242
52.7071 -97.3803 9.4898
52.8168 -97.3873 9.4471
52.9251 -97.3926 9.4139
53.0315 -97.3958 9.3929
53.1375 -97.3986 9.3743
53.244 -97.402 9.3527
53.3495 -97.4041 9.3377
53.453 -97.404 9.3354
53.5564 -97.404 9.3333
53.661 -97.4051 9.3241
53.7656 -97.4062 9.3153
53.8698 -97.4069 9.3084
53.9743 -97.4079 9.3003
54.0786 -97.4087 9.2933
54.1828 -97.4094 9.2865
54.2875 -97.4106 9.2774
54.3922 -97.4118 9.268
54.4968 -97.4128 9.2594
54.602 -97.4145 9.2474
54.7083 -97.4174 9.2282
54.8155 -97.4211 9.2043
54.9229 -97.4251 9.1789
55.0313 -97.4302 9.1477
55.1418 -97.4374 9.1039
55.2526 -97.4449 9.0585
55.3599 -97.4486 9.0347
55.4629 -97.4478 9.0368
55.5654 -97.4466 9.0415
55.6702 -97.4476 9.033
55.7757 -97.4495 9.0199
55.8804 -97.4504 9.0121
55.9848 -97.4511 9.0057
56.0902 -97.4528 8.9935
56.1963 -97.4552 8.9778
56.3022 -97.4573 8.963
56.4089 -97.4603 8.9433
56.5177 -97.4655 8.9116
56.6273 -97.4714 8.8756
56.7366 -97.477 8.8413
56.8477 -97.4843 8.797
56.9615 -97.4943 8.7373
57.0758 -97.5048 8.675
57.1891 -97.5143 8.6187
57.3021 -97.5234 8.5642
57.4147 -97.532 8.5126
57.5247 -97.538 8.4759
57.6308 -97.5401 8.4616
57.7361 -97.5413 8.4526
57.845 -97.5461 8.4229
57.9586 -97.5556 8.3663
58.073 -97.5658 8.3057
58.1845 -97.5731 8.2615
58.2925 -97.5769 8.2379
58.3984 -97.5786 8.2256
58.5051 -97.581 8.2096
58.6135 -97.5852 8.1835
58.7227 -97.5901 8.1535
58.8322 -97.5952 8.1216
58.9417 -97.6003 8.0902
59.0494 -97.6037 8.0686
59.1559 -97.6059 8.0543
59.2627 -97.6083 8.0378
59.3697 -97.6109 8.0211
59.474 -97.6109 8.0189
59.5761 -97.6087 8.0288
59.6799 -97.6083 8.0294
59.7856 -97.6096 8.0195
59.8913 -97.6109 8.0099
59.9965 -97.6118 8.0027
60.102 -97.6128 7.9947
60.2082 -97.6147 7.982
60.3151 -97.617 7.9662
60.4208 -97.6183 7.9569
60.5251 -97.6183 7.9549
60.6307 -97.6193 7.9466
60.7395 -97.6235 7.921
60.8516 -97.6307 7.8776
60.966 -97.6401 7.8219
61.081 -97.6499 7.7637
61.1947 -97.6585 7.7126
61.307 -97.6657 7.6694
61.4184 -97.672 7.6309
61.5294 -97.678 7.5947
61.6414 -97.6849 7.5531
61.7575 -97.6955 7.4908
61.8781 -97.7102 7.4049
61.9999 -97.7259 7.3129
62.1196 -97.7396 7.2326
62.2371 -97.7513 7.1641
62.3541 -97.7625 7.0979
62.4714 -97.7738 7.0313
62.5889 -97.7853 6.9637
62.7069 -97.7972 6.8938
62.8263 -97.8103 6.8165
62.9479 -97.8253 6.7288
63.0713 -97.8419 6.6323
63.1989 -97.8622 6.5142
63.3371 -97.8919 6.3429
63.4869 -97.9318 6.1127
63.6376 -97.9724 5.879
63.7813 -98.0066 5.6819
63.9178 -98.0342 5.5221
64.049 -98.057 5.3901
64.1745 -98.0746 5.2875
64.2994 -98.0917 5.1879
64.4272 -98.1112 5.0745
64.5605 -98.1355 4.9341
64.7051 -98.1696 4.7371
33.8251 -98.2799 5.5996
33.9259 -98.2724 5.6377
34.0208 -98.2524 5.7471
34.1167 -98.2346 5.844
34.2122 -98.2162 5.9444
34.3078 -98.1982 6.0424
34.4053 -98.1843 6.1173
34.5038 -98.1728 6.1787
34.6027 -98.1619 6.2364
34.7014 -98.1509 6.2947
34.8002 -98.1402 6.3517
34.8996 -98.1307 6.4013
35.0002 -98.1238 6.4363
35.1022 -98.1197 6.4557
35.2049 -98.1172 6.4658
35.3076 -98.1145 6.4771
35.4095 -98.1103 6.4967
35.5108 -98.1051 6.5224
35.6119 -98.0995 6.5505
35.7122 -98.0922 6.5877
35.8109 -98.0819 6.6421
35.9088 -98.07 6.7056
36.0071 -98.0592 6.7631
36.1064 -98.0503 6.8097
36.2059 -98.0419 6.8537
36.3055 -98.0336 6.8965
36.406 -98.0272 6.9292
36.5077 -98.0231 6.9486
36.6099 -98.0199 6.9625
36.7122 -98.017 6.9752
36.8151 -98.0153 6.981
36.9189 -98.0153 6.9773
37.0228 -98.0155 6.9722
37.1268 -98.0157 6.9671
37.2317 -98.0176 6.952
37.3374 -98.021 6.929
37.4427 -98.0237 6.9101
37.5478 -98.0259 6.8937
37.6531 -98.0284 6.8755
37.7565 -98.0275 6.8768
37.8571 -98.0215 6.9069
37.9567 -98.0139 6.9465
38.0561 -98.0058 6.9883
38.1552 -97.9972 7.0335
38.2563 -97.9924 7.0573
38.3599 -97.992 7.0556
38.4613 -97.9877 7.0764
38.5594 -97.9774 7.1308
38.6576 -97.9676 7.1826
38.7568 -97.9595 7.2248
38.8548 -97.9495 7.2781
38.9517 -97.9377 7.3415
39.0503 -97.9287 7.3889
39.1511 -97.9237 7.4137
39.2518 -97.9185 7.4394
39.3511 -97.9109 7.4788
39.4494 -97.9017 7.5274
39.547 -97.8914 7.5821
39.6432 -97.8788 7.65
39.7373 -97.8629 7.737
39.8306 -97.8456 7.8313
39.9248 -97.83 7.9165
40.0196 -97.8155 7.9956
40.1136 -97.7997 8.0815
40.2059 -97.7812 8.1828
40.2967 -97.7605 8.297
40.387 -97.7391 8.4152
40.4758 -97.7154 8.5462
40.5638 -97.6907 8.6833
40.6581 -97.6761 8.7625
40.7562 -97.6678 8.8058
40.8546 -97.6601 8.8461
40.9534 -97.653 8.883
41.0535 -97.6479 8.9083
41.154 -97.6436 8.9291
41.2529 -97.6368 8.9644
41.3487 -97.6252 9.0267
41.4431 -97.6114 9.1015
41.5369 -97.5969 9.1808
41.6282 -97.5784 9.2824
41.7169 -97.5561 9.4056
41.805 -97.533 9.5336
41.8937 -97.5111 9.6547
41.9854 -97.4938 9.7497
42.0812 -97.4829 9.808
42.1784 -97.4742 9.8541
42.2757 -97.4657 9.8991
42.3736 -97.4581 9.9384
42.4712 -97.4503 9.9796
42.5675 -97.4404 10.0326
42.6635 -97.4303 10.0866
42.7608 -97.4219 10.1305
42.8586 -97.4146 10.1689
42.9568 -97.4077 10.2048
43.056 -97.4025 10.2309
43.1573 -97.4003 10.2403
43.2606 -97.401 10.2326
43.3641 -97.402 10.2235
43.4652 -97.3996 10.2342
43.5646 -97.3948 10.2583
43.6642 -97.3901 10.2814
43.7651 -97.3874 10.2937
43.8671 -97.3862 10.2966
43.9684 -97.3841 10.3056
44.0685 -97.3803 10.324
44.1681 -97.3758 10.3464
44.2674 -97.3708 10.371
44.3666 -97.3658 10.3964
44.4659 -97.361 10.4205
44.5659 -97.357 10.4398
44.6668 -97.3544 10.4513
44.7684 -97.3529 10.4567
44.8702 -97.3515 10.4614
44.9715 -97.3496 10.4691
45.0737 -97.3487 10.471
45.1784 -97.3514 10.4525
45.2843 -97.3557 10.4246
45.3888 -97.3581 10.4081
45.4917 -97.3582 10.4041
45.5936 -97.357 10.4077
45.695 -97.3551 10.4155
45.7966 -97.3535 10.4212
45.8995 -97.3536 10.4176
46.0038 -97.3556 10.403
46.1087 -97.3584 10.3839
46.2139 -97.3615 10.3633
46.3194 -97.365 10.3399
46.4252 -97.369 10.3141
46.531 -97.3729 10.2892
46.6356 -97.3752 10.2729
46.7387 -97.3754 10.2683
46.8412 -97.3748 10.2687
46.9437 -97.3744 10.2682
47.0466 -97.3744 10.265
47.1504 -97.3755 10.2554
47.2552 -97.3779 10.2387
47.3603 -97.3807 10.2198
47.4658 -97.384 10.1979
47.572 -97.3882 10.1711
47.6775 -97.3914 10.1498
47.7811 -97.3921 10.1428
47.8842 -97.3923 10.1389
47.989 -97.3945 10.1229
48.0952 -97.3986 10.097
48.2013 -97.4024 10.0719
48.3067 -97.4055 10.0516
48.4119 -97.4082 10.0332
48.5168 -97.4105 10.0173
48.6212 -97.4121 10.0048
48.726 -97.4143 9.9895
48.8312 -97.4169 9.9719
48.9348 -97.4175 9.9654
49.0366 -97.4159 9.9717
49.1388 -97.4148 9.9752
49.2432 -97.4163 9.9636
49.3497 -97.4204 9.9371
49.4569 -97.4254 9.9056
49.5628 -97.4288 9.8837
49.6666 -97.4295 9.8765
49.7699 -97.4297 9.8727
49.8741 -97.4309 9.8627
49.9795 -97.4336 9.8448
50.0857 -97.4372 9.8216
50.1912 -97.44 9.8028
50.2957 -97.4414 9.7917
50.4002 -97.4429 9.7804
50.5051 -97.4449 9.766
50.6097 -97.4465 9.7541
50.7135 -97.4471 9.748
50.8168 -97.4472 9.7445
50.9212 -97.4485 9.7344
51.0274 -97.4519 9.7123
51.1337 -97.4555 9.6892
51.2387 -97.4574 9.6755
51.3427 -97.4582 9.6678
51.4474 -97.4599 9.6559
51.5535 -97.463 9.6352
51.6602 -97.4669 9.6102
51.7663 -97.47 9.5898
51.8705 -97.471 9.5815
51.9736 -97.4706 9.5809
52.0774 -97.4711 9.5751
52.1822 -97.4727 9.5636
52.2867 -97.4739 9.5538
52.3906 -97.4745 9.5478
52.4942 -97.4748 9.5437
52.5988 -97.4761 9.5335
52.7061 -97.4804 9.5061
52.8153 -97.4868 9.467
52.9243 -97.4931 9.4289
53.0322 -97.498 9.3979
53.1392 -97.5019 9.3732
53.2457 -97.5052 9.352
53.3505 -97.5065 9.3416
53.4529 -97.5054 9.3455
53.556 -97.5049 9.3457
53.6613 -97.5068 9.332
53.7667 -97.5088 9.3182
53.8707 -97.5093 9.3126
53.9747 -97.5098 9.3076
54.0792 -97.5107 9.2996
54.1835 -97.5115 9.2924
54.2872 -97.5117 9.289
54.3904 -97.5113 9.2885
54.4941 -97.5114 9.2857
54.5994 -97.5132 9.2729
54.7061 -97.5165 9.2514
54.8131 -97.5201 9.2284
54.9202 -97.5238 9.2045
55.0283 -97.5285 9.1754
55.1377 -97.5346 9.1381
55.2475 -97.541 9.0992
55.3546 -97.5446 9.0761
55.4585 -97.5448 9.0727
55.5623 -97.5449 9.0697
55.6685 -97.5475 9.0524
55.7752 -97.5506 9.0323
55.8802 -97.5519 9.0226
55.9849 -97.5528 9.0148
56.091 -97.5552 8.9985
56.1975 -97.558 8.9802
56.3034 -97.5602 8.9651
56.4105 -97.5637 8.9431
56.5202 -97.5697 8.9063
56.6304 -97.5762 8.8672
56.739 -97.581 8.8372
56.8484 -97.5867 8.8026
56.9607 -97.5953 8.7511
57.0738 -97.6046 8.696
57.1856 -97.6126 8.648
57.2975 -97.6206 8.6001
57.4102 -97.6294 8.5475
57.5217 -97.6369 8.5025
57.6297 -97.6408 8.4777
57.736 -97.6432 8.4621
57.8454 -97.6485 8.4294
57.9594 -97.6584 8.3707
58.0742 -97.669 8.3079
58.1851 -97.6757 8.2675
58.2917 -97.6781 8.2516
58.3979 -97.6802 8.2376
58.5067 -97.6847 8.2094
58.6165 -97.6902 8.1759
58.7248 -97.6942 8.151
58.8318 -97.6969 8.1333
58.9393 -97.7001 8.1126
59.0471 -97.7036 8.0907
59.1544 -97.7065 8.0718
59.2614 -97.7092 8.0543
59.3682 -97.7116 8.0382
59.4728 -97.7119 8.0342
59.5754 -97.7103 8.0416
59.6795 -97.71 8.0406
59.7854 -97.7116 8.0296
59.8912 -97.713 8.0193
59.9967 -97.7141 8.0109
60.1025 -97.7155 8.0006
60.2091 -97.7177 7.9861
60.3161 -97.7202 7.9696
60.4219 -97.7215 7.9599
60.5258 -97.7211 7.9603
60.6304 -97.7213 7.9569
60.7386 -97.7249 7.9343
60.8499 -97.7314 7.8952
60.9625 -97.739 7.8499
61.0749 -97.7465 7.805
61.187 -97.7536 7.7623
61.299 -97.7606 7.7205
61.4112 -97.7677 7.6778
61.5239 -97.7753 7.6324
61.6386 -97.7847 7.5768
61.7573 -97.7978 7.5004
61.8793 -97.8138 7.4073
62.0008 -97.8292 7.3171
62.1186 -97.8413 7.2464
62.2344 -97.8514 7.187
62.3513 -97.8625 7.1215
62.4708 -97.8759 7.0432
62.5915 -97.8904 6.9586
62.7117 -97.9042 6.8777
62.8307 -97.9171 6.8027
62.9492 -97.9293 6.731
63.0678 -97.9416 6.6588
63.1891 -97.9563 6.5731
63.3197 -97.9793 6.4403
63.4626 -98.0131 6.2457
63.6104 -98.0512 6.0262
63.7556 -98.0868 5.8215
63.8954 -98.1175 5.6445
64.0293 -98.1428 5.4989
64.1598 -98.165 5.3701
64.2906 -98.1873 5.2411
64.4237 -98.2116 5.1009
64.563 -98.2412 4.9301
33.9412 -98.4066 5.4685
34.0358 -98.3857 5.5829
34.1307 -98.3658 5.6914
34.2276 -98.3502 5.7758
34.3221 -98.3296 5.8883
34.4176 -98.3114 5.9875
34.5155 -98.2983 6.0576
34.6138 -98.2862 6.1221
34.7126 -98.2753 6.1794
34.8119 -98.2653 6.232
34.912 -98.2573 6.2737
35.0136 -98.2523 6.2978
35.1161 -98.2491 6.3116
35.2189 -98.2466 6.3217
35.3215 -98.2438 6.3337
35.4231 -98.239 6.3572
35.5239 -98.2325 6.3899
35.6248 -98.2263 6.4208
35.7258 -98.2203 6.4511
35.8257 -98.2121 6.4933
35.9241 -98.2013 6.5508
36.0222 -98.1898 6.6121
36.1207 -98.1792 6.6678
36.2195 -98.1693 6.7202
36.3181 -98.1591 6.7741
36.4172 -98.1497 6.823
36.5179 -98.1437 6.8534
36.6205 -98.1412 6.8635
36.7238 -98.1402 6.8655
36.8275 -98.1398 6.8635
36.932 -98.1411 6.8524
37.0368 -98.1428 6.839
37.1412 -98.1438 6.8296
37.2456 -98.1447 6.8205
37.35 -98.1455 6.8118
37.4547 -98.1469 6.8001
37.5609 -98.151 6.7729
37.6678 -98.1565 6.738
37.7724 -98.1576 6.728
37.8734 -98.1523 6.7539
37.9734 -98.1452 6.7905
38.073 -98.1374 6.8312
38.1721 -98.1288 6.8761
38.2737 -98.1245 6.8965
38.3777 -98.1247 6.8918
38.4789 -98.1199 6.9149
38.5769 -98.1094 6.9708
38.6749 -98.0991 7.0255
38.7739 -98.0906 7.0697
38.8725 -98.0815 7.1175
38.9701 -98.0707 7.175
39.0691 -98.0623 7.2192
39.17 -98.0573 7.2439
39.27 -98.0508 7.2767
39.3681 -98.0411 7.3284
39.4658 -98.0307 7.3835
39.5639 -98.0212 7.4339
39.6619 -98.0115 7.4848
39.7589 -98.0003 7.545
39.8554 -97.9881 7.6103
39.9516 -97.9757 7.6773
40.0471 -97.9622 7.7501
40.1419 -97.9475 7.8295
40.2363 -97.9323 7.9124
40.3301 -97.9162 7.9999
40.4212 -97.8959 8.1116
40.5057 -97.865 8.2835
40.5882 -97.831 8.4725
40.68 -97.8124 8.5745
40.7771 -97.8023 8.6283
40.8755 -97.7943 8.6698
40.9753 -97.7887 8.6981
41.076 -97.7845 8.7182
41.1757 -97.7788 8.7469
41.273 -97.7693 8.7972
41.3678 -97.7561 8.8688
41.4613 -97.7408 8.9521
41.5551 -97.726 9.0324
41.6488 -97.7113 9.1128
41.74 -97.6927 9.2146
41.829 -97.6708 9.3354
41.9174 -97.6482 9.4601
42.0077 -97.6286 9.5676
42.1019 -97.6151 9.6407
42.1984 -97.6052 9.6934
42.2957 -97.5966 9.7391
42.3937 -97.5891 9.7781
42.4909 -97.5805 9.8236
42.5866 -97.5696 9.8818
42.6832 -97.5602 9.9321
42.7817 -97.5536 9.9658
42.8802 -97.5471 9.9992
42.9783 -97.5401 10.0357
43.0778 -97.5351 10.0606
43.1795 -97.5334 10.0669
43.2818 -97.5327 10.0679
43.3832 -97.5305 10.0768
43.4833 -97.5266 10.0959
43.5825 -97.5212 10.123
43.6818 -97.5161 10.1487
43.7825 -97.513 10.1626
43.8838 -97.5108 10.1718
43.9836 -97.5064 10.1937
44.0822 -97.5004 10.2242
44.1817 -97.4956 10.2481
44.2814 -97.4913 10.2696
44.3804 -97.4859 10.2971
44.4787 -97.4795 10.3301
44.577 -97.4732 10.3623
44.6763 -97.4682 10.3873
44.7765 -97.4646 10.4046
44.8769 -97.4613 10.4203
44.9768 -97.4574 10.4392
45.078 -97.4552 10.4485
45.1829 -97.4581 10.4288
45.2897 -97.4637 10.394
45.3954 -97.4676 10.3683
45.4987 -97.4683 10.3612
45.6001 -97.4664 10.369
45.7008 -97.4635 10.382
45.8018 -97.461 10.3932
45.9038 -97.4599 10.3964
46.0071 -97.4606 10.3892
46.1113 -97.4625 10.3754
46.2159 -97.4648 10.359
46.321 -97.4679 10.3386
46.4269 -97.4719 10.3127
46.5328 -97.4758 10.2872
46.6373 -97.478 10.2715
46.7404 -97.4782 10.2673
46.8432 -97.4781 10.2651
46.9466 -97.4788 10.2578
47.0507 -97.4803 10.2463
47.1553 -97.4826 10.2305
47.2606 -97.4856 10.2102
47.3656 -97.4883 10.1918
47.4707 -97.491 10.1733
47.577 -97.4953 10.1458
47.6826 -97.4987 10.1236
47.7859 -97.499 10.1188
47.8885 -97.4986 10.1183
47.9929 -97.5003 10.1054
48.0988 -97.504 10.0815
48.2042 -97.507 10.0615
48.3081 -97.5081 10.0525
48.4118 -97.5089 10.0451
48.5161 -97.5104 10.0334
48.6204 -97.512 10.0211
48.7252 -97.5141 10.0064
48.8302 -97.5165 9.9896
48.9341 -97.5175 9.9812
49.0362 -97.5163 9.985
49.1386 -97.5154 9.9875
49.2427 -97.5166 9.9777
49.3486 -97.52 9.9554
49.4558 -97.525 9.9241
49.5629 -97.5298 9.894
49.6677 -97.5318 9.8797
49.7706 -97.5316 9.8783
49.874 -97.5318 9.8741
49.9795 -97.5346 9.8553
50.0866 -97.5393 9.8256
50.1933 -97.5434 9.7994
50.2985 -97.5459 9.7827
50.4033 -97.5477 9.7693
50.5079 -97.5493 9.7575
50.612 -97.5503 9.7493
50.716 -97.5512 9.7411
50.8208 -97.553 9.7281
50.9264 -97.5557 9.71
51.032 -97.5584 9.6917
51.1366 -97.5599 9.6804
51.2403 -97.5605 9.6747
51.3443 -97.5612 9.6677
51.449 -97.5629 9.6556
51.5544 -97.5652 9.6394
51.6603 -97.5682 9.6198
51.7664 -97.5713 9.5996
51.871 -97.5728 9.5883
51.9742 -97.5725 9.5873
52.0778 -97.5727 9.5831
52.1827 -97.5745 9.5705
52.2879 -97.5766 9.5557
52.3926 -97.5781 9.5448
52.4963 -97.5784 9.5402
52.6002 -97.5789 9.5346
52.7063 -97.5819 9.5148
52.8148 -97.5876 9.4799
52.9243 -97.5943 9.439
53.033 -97.6002 9.4033
53.14 -97.6041 9.3783
53.246 -97.6068 9.3603
53.3502 -97.6076 9.353
53.4523 -97.6061 9.3593
53.5554 -97.6055 9.3598
53.6612 -97.608 9.3429
53.7672 -97.6108 9.3248
53.8715 -97.6116 9.3175
53.9752 -97.6117 9.3142
54.0796 -97.6126 9.3068
54.184 -97.6135 9.2991
54.2876 -97.6136 9.2962
54.3911 -97.6135 9.2941
54.4958 -97.6146 9.2851
54.6015 -97.6168 9.2699
54.7072 -97.6191 9.2547
54.8126 -97.621 9.2412
54.9186 -97.6235 9.2244
55.0261 -97.6277 9.1985
55.1348 -97.6331 9.1652
55.2434 -97.6383 9.1332
55.35 -97.6414 9.1132
55.4544 -97.6421 9.1067
55.5589 -97.6428 9.0998
55.6657 -97.6462 9.0786
55.7735 -97.6504 9.0519
55.8794 -97.6527 9.0367
55.9853 -97.6549 9.0218
56.093 -97.659 8.9959
56.2003 -97.6627 8.9727
56.3062 -97.6648 8.9579
56.4133 -97.6682 8.9367
56.5233 -97.6746 8.8978
56.6338 -97.6814 8.8567
56.742 -97.6859 8.8288
56.8502 -97.6903 8.8012
56.9607 -97.697 8.7607
57.0722 -97.7048 8.7143
57.1831 -97.7118 8.672
57.2942 -97.7191 8.6284
57.4066 -97.7275 8.578
57.5182 -97.7353 8.5316
57.6269 -97.74 8.5026
57.7344 -97.7434 8.4808
57.8447 -97.7497 8.443
57.959 -97.7599 8.3827
58.0735 -97.7702 8.3214
58.1837 -97.7763 8.2847
58.2895 -97.7779 8.2733
58.3954 -97.7797 8.2609
58.5057 -97.7857 8.2245
58.6177 -97.7934 8.1784
58.7266 -97.7981 8.1497
58.8326 -97.7998 8.1376
58.9383 -97.8012 8.1276
59.0452 -97.8038 8.1106
59.1528 -97.807 8.0899
59.26 -97.8099 8.0715
59.3663 -97.8119 8.0578
59.4714 -97.8126 8.0515
59.5756 -97.8125 8.0498
59.6807 -97.8133 8.043
59.7867 -97.815 8.0317
59.8922 -97.8161 8.023
59.9976 -97.8171 8.0151
60.1038 -97.8189 8.0027
60.211 -97.8216 7.9851
60.3183 -97.8244 7.9672
60.4239 -97.8256 7.9581
60.527 -97.8244 7.9631
60.63 -97.8231 7.9683
60.7368 -97.8254 7.9531
60.8472 -97.8311 7.9189
60.9586 -97.8377 7.8792
61.07 -97.8442 7.8402
61.1812 -97.8505 7.802
61.2927 -97.8571 7.7628
61.4051 -97.8645 7.7187
61.5194 -97.8735 7.6651
61.6363 -97.885 7.5976
61.7565 -97.8995 7.5133
61.8792 -97.9162 7.4165
62.0009 -97.9319 7.3253
62.1185 -97.9437 7.2558
62.2334 -97.9531 7.2005
62.3499 -97.9639 7.1374
62.4706 -97.9783 7.0531
62.5939 -97.9952 6.955
62.7164 -98.0112 6.8622
62.8356 -98.0243 6.7861
62.952 -98.0346 6.7251
63.0675 -98.0442 6.669
63.1852 -98.0556 6.6019
63.3099 -98.0733 6.4995
63.4449 -98.1002 6.3445
63.5862 -98.1326 6.1586
63.73 -98.1671 5.9603
63.8715 -98.1994 5.7747
64.0075 -98.2267 5.6178
64.1399 -98.2507 5.4793
64.2733 -98.2754 5.3371
64.4118 -98.3046 5.1692
34.5263 -98.4223 5.945
34.6236 -98.4079 6.0224
34.7236 -98.3993 6.0669
34.8237 -98.391 6.1102
34.9245 -98.3842 6.1441
35.0266 -98.3801 6.1637
35.129 -98.3766 6.1792
35.2315 -98.3734 6.1936
35.334 -98.3702 6.2076
35.4355 -98.365 6.2326
35.536 -98.3579 6.2691
35.6369 -98.3517 6.3003
35.7387 -98.347 6.3223
35.8399 -98.3414 6.3503
35.9396 -98.333 6.3939
36.0385 -98.3228 6.4473
36.1372 -98.3125 6.5016
36.2357 -98.3019 6.5578
36.3334 -98.2897 6.6229
36.4304 -98.2763 6.695
36.5293 -98.2668 6.7446
36.6326 -98.2656 6.7477
36.7375 -98.2674 6.7336
36.8423 -98.2691 6.72
36.9476 -98.2717 6.7015
37.0532 -98.2746 6.6808
37.1586 -98.2774 6.661
37.2636 -98.2792 6.647
37.3666 -98.2775 6.6531
37.4693 -98.275 6.6631
37.5747 -98.2777 6.6439
37.6818 -98.2834 6.608
37.7863 -98.2843 6.5994
37.8874 -98.2789 6.6258
37.9875 -98.2719 6.6614
38.0874 -98.2645 6.6995
38.1871 -98.2568 6.7394
38.2883 -98.252 6.7629
38.3912 -98.2501 6.77
38.4921 -98.2446 6.797
38.5903 -98.2345 6.8507
38.6881 -98.2237 6.9079
38.7869 -98.2146 6.9557
38.8858 -98.2059 7.0011
38.9844 -98.1967 7.0494
39.0838 -98.189 7.0894
39.1842 -98.183 7.1194
39.2837 -98.1756 7.1579
39.3815 -98.1653 7.2124
39.4791 -98.1546 7.2693
39.5777 -98.1458 7.3152
39.6772 -98.1385 7.3527
39.7764 -98.1309 7.3924
39.8754 -98.1227 7.4348
39.9739 -98.1141 7.4802
40.0709 -98.1028 7.5402
40.1668 -98.0898 7.6104
40.263 -98.0775 7.6761
40.36 -98.0665 7.7348
40.4544 -98.0513 7.8172
40.6209 -97.9851 8.1846
40.7123 -97.9655 8.292
40.8048 -97.9478 8.3887
40.8992 -97.9333 8.467
40.9975 -97.9252 8.5096
41.0973 -97.9195 8.5382
41.1953 -97.9108 8.5837
41.2905 -97.898 8.6529
41.3842 -97.8828 8.7354
41.4772 -97.8665 8.8241
41.571 -97.8518 8.904
41.6662 -97.8391 8.9724
41.76 -97.8245 9.0515
41.8511 -97.8057 9.1542
41.9406 -97.7847 9.2698
42.0308 -97.7648 9.3789
42.1237 -97.7491 9.4643
42.2191 -97.7374 9.5273
42.3159 -97.728 9.5773
42.4136 -97.7199 9.6194
42.5104 -97.7105 9.6694
42.6059 -97.6993 9.7294
42.7028 -97.6901 9.7778
42.8017 -97.6841 9.8084
42.9009 -97.6785 9.8368
42.9999 -97.6727 9.8661
43.1007 -97.6695 9.8811
43.2031 -97.6688 9.8818
43.3044 -97.6665 9.8916
43.4039 -97.6614 9.9168
43.503 -97.6558 9.9452
43.602 -97.6501 9.9743
43.7015 -97.6452 9.9984
43.8024 -97.6423 10.0118
43.903 -97.639 10.0272
44.0019 -97.6332 10.0567
44.1003 -97.6268 10.0896
44.1998 -97.622 10.1135
44.2993 -97.6172 10.1378
44.3975 -97.6105 10.172
44.4947 -97.6025 10.214
44.5918 -97.5945 10.2563
44.6894 -97.5872 10.2944
44.7877 -97.5809 10.327
44.8863 -97.575 10.3572
44.9847 -97.5689 10.3885
45.0851 -97.5655 10.4043
45.19 -97.5685 10.3845
45.2969 -97.5742 10.349
45.4027 -97.5782 10.323
45.5059 -97.5788 10.3167
45.6073 -97.5768 10.3245
45.7084 -97.5744 10.3351
45.8097 -97.5723 10.344
45.911 -97.5703 10.3523
46.0127 -97.5687 10.3578
46.1153 -97.5684 10.3565
46.2193 -97.57 10.3447
46.3247 -97.5733 10.3225
46.431 -97.5779 10.2932
46.5368 -97.5819 10.2678
46.6409 -97.5834 10.256
46.7434 -97.5829 10.2561
46.846 -97.5825 10.2552
46.9501 -97.5841 10.243
47.0557 -97.5875 10.2206
47.1622 -97.5923 10.1906
47.2696 -97.5981 10.1547
47.3755 -97.6018 10.1303
47.4794 -97.603 10.121
47.5841 -97.6052 10.1051
47.6892 -97.6079 10.087
47.7922 -97.6079 10.084
47.8939 -97.6063 10.0902
47.9974 -97.6068 10.0839
48.1029 -97.61 10.0632
48.2077 -97.6123 10.0473
48.3107 -97.6122 10.0449
48.413 -97.6113 10.0471
48.5159 -97.611 10.0454
48.6193 -97.6115 10.04
48.7231 -97.6124 10.0316
48.8276 -97.6141 10.0191
48.9322 -97.6161 10.0052
49.0361 -97.6171 9.9966
49.1392 -97.617 9.994
49.2427 -97.6175 9.9885
49.3477 -97.6198 9.9724
49.4547 -97.6246 9.9422
49.5628 -97.6306 9.9053
49.669 -97.6344 9.8813
49.7723 -97.6345 9.8775
49.8746 -97.6335 9.8804
49.9789 -97.6348 9.87
50.086 -97.6395 9.8409
50.1936 -97.6448 9.8079
50.3001 -97.6488 9.7824
50.4057 -97.6516 9.7636
50.5106 -97.6535 9.7502
50.6146 -97.6545 9.7417
50.7193 -97.6562 9.7294
50.8257 -97.6599 9.7057
50.9327 -97.6643 9.6781
51.0379 -97.6665 9.6626
51.1408 -97.666 9.6627
51.2436 -97.6654 9.6636
51.3476 -97.6662 9.6561
51.4524 -97.6679 9.6438
51.5569 -97.6692 9.6335
51.6612 -97.6703 9.6247
51.7661 -97.6722 9.6112
51.871 -97.6739 9.5991
51.9745 -97.6741 9.5951
52.078 -97.6743 9.5915
52.183 -97.6761 9.5786
52.2892 -97.6792 9.5581
52.3949 -97.6819 9.5402
52.499 -97.6826 9.5334
52.6026 -97.6829 9.5294
52.7082 -97.6853 9.5127
52.8162 -97.6904 9.4814
52.9249 -97.6963 9.4452
53.0327 -97.7012 9.4151
53.139 -97.7043 9.3945
53.2447 -97.7067 9.3783
53.349 -97.7076 9.3709
53.4514 -97.7063 9.3753
53.5544 -97.7058 9.3761
53.6599 -97.708 9.3608
53.7659 -97.7107 9.3427
53.8705 -97.7119 9.3337
53.9745 -97.7123 9.3288
54.0792 -97.7136 9.319
54.1842 -97.7151 9.3075
54.2887 -97.7161 9.2996
54.3937 -97.7176 9.2884
54.4997 -97.7203 9.2707
54.6053 -97.7225 9.2559
54.7094 -97.723 9.2505
54.8129 -97.7229 9.2488
54.9179 -97.7243 9.2384
55.0254 -97.7284 9.2125
55.1342 -97.7339 9.1786
55.2419 -97.7382 9.152
55.3473 -97.74 9.1393
55.4513 -97.7403 9.1349
55.5558 -97.7412 9.1278
55.6625 -97.7443 9.1074
55.7706 -97.7489 9.0789
55.8779 -97.7526 9.0554
55.9855 -97.7566 9.0304
56.0947 -97.7623 8.9957
56.2033 -97.7673 8.965
56.3097 -97.7701 8.947
56.4164 -97.7731 8.9277
56.5254 -97.7784 8.8949
56.6353 -97.7847 8.8571
56.7439 -97.7895 8.8273
56.852 -97.7939 8.8002
56.9611 -97.7992 8.7677
57.0709 -97.8052 8.7316
57.1808 -97.8112 8.6948
57.2917 -97.8183 8.6523
57.4041 -97.8269 8.6013
57.5155 -97.8344 8.5566
57.6236 -97.8385 8.5311
57.7311 -97.842 8.509
57.8422 -97.849 8.4667
57.9566 -97.8595 8.4052
58.0709 -97.8697 8.3452
58.1818 -97.8764 8.3049
58.2885 -97.879 8.288
58.3944 -97.8806 8.2761
58.5046 -97.8866 8.24
58.6175 -97.8953 8.1886
58.7275 -97.901 8.1539
58.8337 -97.9029 8.1408
58.9387 -97.9037 8.1341
59.0447 -97.9054 8.1224
59.152 -97.9084 8.103
59.2597 -97.9118 8.0819
59.3663 -97.914 8.067
59.4717 -97.9151 8.0587
59.5771 -97.9161 8.0506
59.683 -97.9177 8.0394
59.7887 -97.919 8.0299
59.8937 -97.9197 8.0239
59.9991 -97.9208 8.0156
60.1059 -97.9231 8.0005
60.2136 -97.9263 7.9799
60.3211 -97.9294 7.9606
60.4264 -97.9303 7.9534
60.5285 -97.9281 7.9638
60.63 -97.9254 7.977
60.7352 -97.9261 7.9705
60.8446 -97.9309 7.9415
60.9555 -97.937 7.9049
61.0662 -97.9429 7.8692
61.1768 -97.9487 7.8344
61.2878 -97.9548 7.7979
61.4004 -97.9624 7.7526
61.5163 -97.973 7.6902
61.6354 -97.9865 7.6117
61.7564 -98.0018 7.5227
61.8791 -98.0186 7.4258
62.0009 -98.0344 7.334
62.1185 -98.0463 7.2648
62.2325 -98.0549 7.214
62.3478 -98.0645 7.1574
62.4684 -98.079 7.073
62.5938 -98.0978 6.9645
62.7185 -98.1159 6.8596
62.8377 -98.1289 6.7839
62.9522 -98.1376 6.7327
63.0661 -98.1457 6.6852
63.1824 -98.156 6.6249
63.3043 -98.1712 6.5366
63.4324 -98.1919 6.417
63.5662 -98.2177 6.2688
63.7058 -98.2485 6.0922
63.8461 -98.2799 5.9124
63.9827 -98.3078 5.752
64.1157 -98.3325 5.6102
64.2493 -98.3574 5.4667
64.3926 -98.3909 5.2747
34.6356 -98.5343 5.8969
34.7344 -98.5231 5.9564
34.937 -98.5112 6.0153
35.0398 -98.5084 6.0269
35.1411 -98.5026 6.056
35.2434 -98.4989 6.0727
35.3458 -98.4954 6.0887
35.4471 -98.4898 6.116
35.5476 -98.4824 6.1538
35.6488 -98.4766 6.1824
35.7511 -98.4731 6.1984
35.8532 -98.469 6.2177
35.9545 -98.4636 6.2442
36.055 -98.4566 6.2798
36.1547 -98.448 6.3244
36.2539 -98.4385 6.3737
36.3519 -98.4267 6.4362
36.4484 -98.4123 6.514
36.5464 -98.4008 6.5749
36.6491 -98.3983 6.5848
36.7542 -98.4005 6.5689
36.8597 -98.4032 6.5493
36.9655 -98.4065 6.5268
37.0718 -98.4109 6.4983
37.1787 -98.4162 6.4643
37.2842 -98.4191 6.4446
37.3868 -98.4162 6.457
37.488 -98.411 6.4825
37.5913 -98.4095 6.4871
37.6963 -98.4112 6.4735
37.7994 -98.4096 6.4789
37.9002 -98.4036 6.5091
38.0002 -98.3963 6.5464
38.1003 -98.3891 6.5832
38.2004 -98.3822 6.6186
38.3014 -98.3766 6.6461
38.4027 -98.3718 6.6696
38.5027 -98.3647 6.7061
38.601 -98.3547 6.7585
38.6992 -98.3444 6.8128
38.7979 -98.3353 6.8604
38.8969 -98.3267 6.9057
38.9959 -98.3181 6.9503
39.0955 -98.3105 6.9893
39.1954 -98.3036 7.0247
39.2945 -98.2954 7.0674
39.3926 -98.2855 7.1197
39.4909 -98.276 7.1693
39.5906 -98.2689 7.2058
39.6911 -98.2633 7.2338
39.7916 -98.2577 7.2618
39.8921 -98.252 7.2901
39.9921 -98.2457 7.3225
40.0904 -98.2365 7.3704
40.1877 -98.2257 7.4282
40.2857 -98.2162 7.4777
40.385 -98.2088 7.5159
40.4831 -98.1996 7.5646
40.5763 -98.1823 7.6584
40.6656 -98.1589 7.7873
40.7536 -98.1335 7.927
40.8416 -98.1082 8.0665
40.9313 -98.0859 8.1886
41.0246 -98.0696 8.2772
41.1212 -98.0586 8.3356
41.2167 -98.0459 8.4042
41.3099 -98.0296 8.4924
41.4023 -98.0122 8.5873
41.4948 -97.9952 8.6798
41.5889 -97.9806 8.7587
41.6846 -97.9687 8.8225
41.7795 -97.9556 8.893
41.8722 -97.9392 8.9823
41.9633 -97.9204 9.0848
42.0543 -97.9016 9.1875
42.1467 -97.8851 9.2775
42.241 -97.8717 9.3498
42.3371 -97.861 9.4068
42.4343 -97.852 9.4539
42.5311 -97.8426 9.504
42.627 -97.8318 9.5615
42.7234 -97.8217 9.6149
42.8214 -97.8142 9.6543
42.9205 -97.8084 9.6833
43.021 -97.8048 9.7008
43.1237 -97.8043 9.7
43.2268 -97.8045 9.6954
43.3271 -97.8004 9.7152
43.4251 -97.7932 9.753
43.5235 -97.7865 9.7874
43.6229 -97.7812 9.8137
43.7233 -97.7776 9.8312
43.8243 -97.7747 9.8443
43.9243 -97.7704 9.8652
44.0232 -97.7645 9.895
44.1222 -97.7588 9.9238
44.2215 -97.7537 9.9497
44.3201 -97.7474 9.9818
44.4172 -97.7392 10.0253
44.5134 -97.7297 10.0753
44.6096 -97.7201 10.1262
44.7058 -97.7108 10.1756
44.8026 -97.7022 10.221
44.8999 -97.6945 10.2613
44.9976 -97.6873 10.2987
45.0968 -97.6823 10.3241
45.2001 -97.683 10.317
45.3062 -97.6875 10.2885
45.4114 -97.6907 10.2669
45.5144 -97.6909 10.2627
45.6164 -97.6898 10.2662
45.7188 -97.6892 10.2663
45.821 -97.6883 10.268
45.9219 -97.6856 10.2803
46.0219 -97.6817 10.2992
46.1224 -97.6786 10.3136
46.2254 -97.6788 10.3095
46.3311 -97.6826 10.285
46.4378 -97.6877 10.253
46.5434 -97.6913 10.2296
46.6467 -97.6918 10.2234
46.7485 -97.6903 10.229
46.8508 -97.6894 10.2309
46.9553 -97.6915 10.2158
47.0619 -97.6964 10.1855
47.1704 -97.7036 10.1416
47.2801 -97.7124 10.0889
47.3875 -97.7181 10.0535
47.4912 -97.7191 10.045
47.5945 -97.7194 10.0402
47.6985 -97.7207 10.0302
47.8011 -97.7201 10.0304
47.9021 -97.7175 10.0423
48.0042 -97.7163 10.0462
48.1085 -97.7179 10.034
48.2125 -97.7191 10.0241
48.3148 -97.7182 10.0263
48.4164 -97.7163 10.034
48.5181 -97.7146 10.0409
48.6198 -97.7129 10.0476
48.7217 -97.7115 10.0524
48.825 -97.7118 10.0481
48.9302 -97.7144 10.0303
49.0361 -97.7179 10.0078
49.1405 -97.7196 9.9954
49.2439 -97.7198 9.9909
49.3482 -97.7214 9.9793
49.455 -97.7258 9.9512
49.5631 -97.732 9.9138
49.67 -97.7366 9.885
49.7741 -97.7377 9.8754
49.8763 -97.7365 9.8794
49.9792 -97.7361 9.879
50.0852 -97.7396 9.8563
50.1931 -97.7452 9.8219
50.3002 -97.7499 9.7926
50.4061 -97.7532 9.7714
50.5114 -97.7555 9.7552
50.6161 -97.7573 9.7422
50.7216 -97.76 9.7244
50.8289 -97.7647 9.6948
50.9363 -97.7696 9.6646
51.041 -97.7712 9.6527
51.1435 -97.7703 9.6553
51.2467 -97.7702 9.653
51.3515 -97.7719 9.6408
51.4566 -97.774 9.6263
51.561 -97.7751 9.6169
51.6645 -97.7754 9.6128
51.7682 -97.7758 9.6078
51.8724 -97.7767 9.6
51.9762 -97.7772 9.5944
52.0797 -97.7774 9.5906
52.1844 -97.7788 9.58
52.2905 -97.7819 9.5598
52.3963 -97.7847 9.5413
52.5005 -97.7856 9.5338
52.6047 -97.7865 9.5262
52.7109 -97.7896 9.506
52.8185 -97.7943 9.4768
52.9259 -97.7988 9.4486
53.0319 -97.8016 9.43
53.1372 -97.8037 9.4159
53.243 -97.8061 9.3992
53.348 -97.8079 9.3869
53.4513 -97.8076 9.3855
53.5544 -97.8071 9.3858
53.6589 -97.8083 9.3767
53.7643 -97.8103 9.3631
53.8687 -97.8112 9.3552
53.973 -97.8121 9.3478
54.0783 -97.814 9.3343
54.1837 -97.816 9.3203
54.2891 -97.818 9.3068
54.3954 -97.821 9.2873
54.5022 -97.8245 9.2651
54.6075 -97.8262 9.2526
54.7107 -97.8258 9.2525
54.8136 -97.825 9.2545
54.9183 -97.8262 9.2453
55.0262 -97.8308 9.2171
55.1355 -97.8368 9.1807
55.2427 -97.8406 9.1569
55.3467 -97.8409 9.1523
55.4499 -97.8403 9.1532
55.5543 -97.8412 9.1461
55.661 -97.8443 9.1261
55.7691 -97.8489 9.0973
55.8773 -97.8536 9.0683
55.9859 -97.8587 9.0373
56.0957 -97.865 8.9993
56.2051 -97.8709 8.9637
56.3123 -97.8744 8.9415
56.4186 -97.877 8.9244
56.5264 -97.8811 8.8989
56.6353 -97.8863 8.8669
56.7441 -97.8915 8.8354
56.8528 -97.8964 8.805
56.9615 -97.9013 8.775
57.07 -97.906 8.746
57.1791 -97.9113 8.7141
57.2901 -97.9185 8.6708
57.4029 -97.9275 8.6178
57.5139 -97.9346 8.5752
57.621 -97.9377 8.5552
57.7278 -97.9406 8.5368
57.839 -97.9478 8.4938
57.954 -97.9588 8.4293
58.0694 -97.9701 8.363
58.1823 -97.9788 8.3113
58.2905 -97.9829 8.2859
58.3966 -97.9849 8.2728
58.5058 -97.9899 8.2423
58.618 -97.9978 8.1953
58.7281 -98.0037 8.1598
58.8347 -98.0059 8.1447
58.9398 -98.0068 8.1375
59.0454 -98.0082 8.1274
59.1523 -98.0108 8.1106
59.2602 -98.0143 8.0885
59.3674 -98.0172 8.07
59.4734 -98.0189 8.0584
59.5798 -98.0209 8.0446
59.6864 -98.0232 8.0298
59.7915 -98.024 8.0233
59.8958 -98.0239 8.0212
60.0012 -98.025 8.0132
60.108 -98.0273 7.998
60.2155 -98.0303 7.9788
60.3228 -98.0332 7.9606
60.428 -98.0339 7.9542
60.5296 -98.0313 7.9668
60.6304 -98.0279 7.9839
60.735 -98.0281 7.9808
60.8441 -98.0327 7.9531
60.9548 -98.0386 7.9174
61.065 -98.044 7.8845
61.1747 -98.049 7.8546
61.2849 -98.0544 7.8217
61.3979 -98.0624 7.7747
61.5153 -98.0744 7.7043
61.6356 -98.0892 7.619
61.7567 -98.1045 7.53
61.8783 -98.1203 7.4388
61.9993 -98.1354 7.3515
62.1167 -98.1471 7.283
62.2305 -98.1555 7.2336
62.3446 -98.1641 7.1828
62.4642 -98.1778 7.1037
62.5907 -98.1977 6.9892
62.7173 -98.2176 6.8746
62.8364 -98.2305 6.7996
62.9494 -98.2378 6.7562
63.0622 -98.2449 6.7139
63.1782 -98.2549 6.6555
63.2984 -98.2687 6.5756
63.4222 -98.2856 6.478
63.5496 -98.3057 6.3621
63.6833 -98.3314 6.2148
63.82 -98.3597 6.0532
63.9558 -98.3869 5.8968
64.0924 -98.4149 5.7367
64.2326 -98.4459 5.5593
64.376 -98.4796 5.3668
35.2549 -98.6237 5.9566
35.3573 -98.6201 5.9727
35.4588 -98.6146 5.9997
35.5587 -98.606 6.0444
35.66 -98.6003 6.0726
35.763 -98.598 6.0811
35.8645 -98.5929 6.1063
35.9677 -98.5909 6.1136
36.071 -98.5893 6.1183
36.1711 -98.5813 6.1597
36.272 -98.575 6.1912
36.3723 -98.5676 6.2291
36.4708 -98.5568 6.2858
36.5697 -98.5468 6.3385
36.6706 -98.5406 6.3689
36.774 -98.5394 6.3722
36.8788 -98.5409 6.3599
36.9846 -98.544 6.3383
37.0915 -98.5494 6.3043
37.1991 -98.5558 6.2644
37.3045 -98.5582 6.2471
37.4062 -98.5537 6.2684
37.5069 -98.5474 6.3
37.6087 -98.543 6.321
37.7113 -98.5403 6.3324
37.8131 -98.5361 6.3524
37.9134 -98.529 6.3884
38.0129 -98.5206 6.4319
38.1125 -98.5126 6.4734
38.2127 -98.5057 6.5086
38.3133 -98.4994 6.5399
38.4135 -98.4924 6.5756
38.5126 -98.4837 6.6208
38.6112 -98.4741 6.6713
38.7099 -98.4648 6.7203
38.8088 -98.4558 6.767
38.9077 -98.4468 6.8141
39.0067 -98.4381 6.8591
39.1061 -98.4303 6.8996
39.2054 -98.4222 6.9415
39.3039 -98.4128 6.9906
39.4024 -98.4036 7.039
39.5022 -98.3965 7.075
39.6032 -98.3917 7.0984
39.7046 -98.3875 7.1185
39.8058 -98.383 7.1404
39.907 -98.3784 7.1624
40.0076 -98.3729 7.19
40.1065 -98.3646 7.233
40.2048 -98.3554 7.2813
40.3043 -98.3482 7.3183
40.4047 -98.3426 7.3463
40.5045 -98.336 7.3797
40.6026 -98.3267 7.4289
40.6985 -98.3138 7.4979
40.7897 -98.2934 7.6094
40.8801 -98.2717 7.7281
40.9713 -98.2515 7.8381
41.0604 -98.2281 7.9664
41.1514 -98.208 8.0764
41.2443 -98.191 8.1686
41.336 -98.1722 8.2712
41.4269 -98.1521 8.3806
41.5191 -98.1344 8.4768
41.6131 -98.1196 8.5569
41.7079 -98.1061 8.6293
41.8022 -98.0919 8.7059
41.8952 -98.0759 8.7929
41.9872 -98.0583 8.8884
42.0787 -98.0401 8.9877
42.171 -98.0233 9.0791
42.265 -98.0092 9.1551
42.3607 -97.9977 9.2162
42.4574 -97.988 9.2679
42.5543 -97.9785 9.3181
42.6504 -97.9678 9.375
42.7461 -97.9566 9.4343
42.8429 -97.9472 9.4841
42.9418 -97.941 9.5157
43.0435 -97.939 9.5239
43.1478 -97.9408 9.5101
43.2511 -97.9411 9.505
43.3506 -97.9359 9.5311
43.448 -97.9276 9.5749
43.5461 -97.9203 9.6125
43.6464 -97.9162 9.6324
43.7476 -97.9137 9.6434
43.8481 -97.9098 9.6616
43.9472 -97.9042 9.69
44.0461 -97.8983 9.7202
44.1454 -97.8929 9.7476
44.2443 -97.887 9.7773
44.3419 -97.8793 9.8175
44.4381 -97.8697 9.8686
44.5338 -97.8592 9.9242
44.6293 -97.8487 9.9802
44.7248 -97.8382 10.0361
44.8207 -97.8284 10.0885
44.9178 -97.8201 10.1319
45.0154 -97.8128 10.1699
45.1136 -97.8063 10.2036
45.2141 -97.8029 10.2193
45.3183 -97.8048 10.2053
45.4234 -97.808 10.1846
45.527 -97.8088 10.1766
45.6298 -97.8088 10.1735
45.7333 -97.8096 10.1661
45.8355 -97.8087 10.1679
45.9356 -97.8048 10.1868
46.0349 -97.7999 10.2115
46.1346 -97.7956 10.2324
46.2359 -97.7934 10.2416
46.3402 -97.7954 10.2272
46.4462 -97.7995 10.2014
46.5511 -97.8021 10.1835
46.6539 -97.802 10.1812
46.7557 -97.8005 10.1864
46.8586 -97.8004 10.1837
