10.4699 -43.3772 5.651
10.5732 -43.3759 5.6501
10.6765 -43.3742 5.6389
10.7797 -43.3723 5.6215
10.8829 -43.3704 5.6031
10.9862 -43.3685 5.5881
11.0895 -43.367 5.5815
11.1929 -43.3657 5.5818
11.2962 -43.3641 5.5741
11.3994 -43.3617 5.5417
11.5026 -43.3589 5.4983
11.6059 -43.3567 5.4738
11.7093 -43.3553 5.4709
11.8127 -43.3539 5.4657
11.9161 -43.3515 5.4366
12.0194 -43.3482 5.379
12.1227 -43.3442 5.2999
12.226 -43.3399 5.2133
12.3295 -43.3357 5.1317
12.433 -43.3321 5.0657
-20.1269 -43.7416 2.3924
-19.9931 -43.7481 2.6264
-19.8705 -43.7516 2.771
-19.7424 -43.7566 2.9609
-19.6116 -43.7623 3.1747
-19.4824 -43.7677 3.3766
-19.3583 -43.7718 3.538
-19.2394 -43.7745 3.6574
-19.1254 -43.7759 3.7376
-19.0143 -43.7765 3.7936
-18.9041 -43.7768 3.8424
-18.7953 -43.7769 3.8806
-18.6884 -43.7763 3.902
-18.5807 -43.776 3.9307
-18.4707 -43.7764 3.9799
-18.361 -43.7767 4.0263
-18.2538 -43.7763 4.0516
-18.1483 -43.7754 4.0629
-18.0432 -43.7744 4.0701
-17.9386 -43.7733 4.0736
-17.8331 -43.7724 4.0855
-17.725 -43.7723 4.1193
-17.6165 -43.7723 4.1568
-17.5102 -43.7717 4.176
-17.4056 -43.7705 4.1798
-17.3001 -43.7697 4.1918
-17.1929 -43.7694 4.219
-17.0861 -43.7689 4.2423
-16.9806 -43.7681 4.2554
-16.8746 -43.7674 4.2724
-16.7683 -43.7668 4.2923
-16.6621 -43.7662 4.3113
-16.5553 -43.7657 4.3355
-16.4477 -43.7655 4.3672
-16.3398 -43.7655 4.4025
-16.2324 -43.7652 4.4327
-16.1262 -43.7646 4.4532
-16.02 -43.7641 4.4735
-15.913 -43.7637 4.5007
-15.8061 -43.7634 4.5275
-15.7017 -43.7623 4.5322
-15.5992 -43.7606 4.5182
-15.495 -43.7594 4.5206
-15.3888 -43.7589 4.5414
-15.2831 -43.7582 4.5578
-15.1776 -43.7574 4.5724
-15.0718 -43.7567 4.5897
-14.9671 -43.7557 4.5975
-14.8634 -43.7544 4.5949
-14.7591 -43.7533 4.5984
-14.6533 -43.7526 4.617
-14.5464 -43.7523 4.6455
-14.439 -43.7522 4.6792
-14.3316 -43.7521 4.7135
-14.225 -43.7517 4.7402
-14.1197 -43.751 4.7541
-14.0152 -43.7499 4.7608
-13.9105 -43.749 4.769
-13.8056 -43.7481 4.78
-13.7011 -43.747 4.7861
-13.5973 -43.7458 4.7859
-13.4932 -43.7446 4.7893
-13.3881 -43.7438 4.8015
-13.2826 -43.7431 4.8188
-13.1763 -43.7427 4.8442
-13.0692 -43.7426 4.8774
-12.9631 -43.7421 4.9012
-12.859 -43.741 4.9049
-12.7557 -43.7396 4.8996
-12.6519 -43.7384 4.9003
-12.5474 -43.7374 4.9081
-12.443 -43.7363 4.9144
-12.339 -43.7352 4.9168
-12.235 -43.734 4.9188
-12.1311 -43.7328 4.9209
-12.0272 -43.7316 4.9222
-11.9235 -43.7303 4.9217
-11.8199 -43.729 4.92
-11.7161 -43.7278 4.9203
-11.6122 -43.7266 4.9223
-11.5084 -43.7254 4.9227
-11.4048 -43.7241 4.9215
-11.3011 -43.7228 4.9213
-11.1967 -43.7218 4.9286
-11.0911 -43.7212 4.9484
-10.9852 -43.7208 4.9723
-10.8803 -43.72 4.9863
-10.7766 -43.7188 4.9862
-10.6733 -43.7173 4.9807
-10.5699 -43.716 4.978
-10.4664 -43.7146 4.9749
-10.363 -43.7133 4.9715
-10.2588 -43.7122 4.977
-10.1543 -43.7113 4.9868
-10.0502 -43.7102 4.9909
-9.946 -43.7091 4.9968
-9.8411 -43.7083 5.0108
-9.7361 -43.7076 5.0268
-9.6305 -43.7071 5.0483
-9.5245 -43.7068 5.0766
-9.4197 -43.706 5.0901
-9.3174 -43.7042 5.0735
-9.2161 -43.702 5.0457
-9.1138 -43.7002 5.029
-9.01 -43.699 5.0304
-8.9053 -43.6981 5.0427
-8.8004 -43.6974 5.0581
-8.6956 -43.6966 5.0724
-8.5909 -43.6958 5.0848
-8.4861 -43.695 5.1002
-8.381 -43.6944 5.1178
-8.2768 -43.6934 5.125
-8.1739 -43.6918 5.116
-8.0712 -43.6902 5.1039
-7.9674 -43.689 5.106
-7.8625 -43.6883 5.1231
-7.7572 -43.6877 5.1443
-7.652 -43.6872 5.1645
-7.5468 -43.6866 5.1854
-7.4414 -43.6861 5.2087
-7.3364 -43.6855 5.2281
-7.2325 -43.6844 5.2322
-7.1294 -43.6829 5.2257
-7.0259 -43.6816 5.2244
-6.9219 -43.6806 5.2304
-6.8181 -43.6795 5.2339
-6.7146 -43.6782 5.2327
-6.6108 -43.677 5.2368
-6.5065 -43.6761 5.2463
-6.4029 -43.6748 5.2463
-6.3002 -43.6732 5.2351
-6.1974 -43.6716 5.2241
-6.0942 -43.6702 5.2198
-5.9902 -43.6691 5.2255
-5.8856 -43.6684 5.2401
-5.7809 -43.6676 5.256
-5.6767 -43.6667 5.2659
-5.5726 -43.6657 5.2736
-5.468 -43.665 5.2894
-5.3631 -43.6644 5.3101
-5.2587 -43.6636 5.3227
-5.1551 -43.6623 5.3235
-5.0519 -43.6609 5.3186
-4.9488 -43.6595 5.3131
-4.8456 -43.658 5.3078
-4.7423 -43.6567 5.3044
-4.6386 -43.6556 5.3084
-4.5345 -43.6546 5.3172
-4.4308 -43.6534 5.3202
-4.3274 -43.6521 5.3175
-4.2236 -43.651 5.3224
-4.1188 -43.6504 5.3435
-4.0137 -43.65 5.3684
-3.9099 -43.6489 5.3736
-3.8075 -43.6471 5.356
-3.7054 -43.6451 5.3341
-3.6029 -43.6432 5.3174
-3.5 -43.6416 5.3073
-3.3966 -43.6404 5.3062
-3.2929 -43.6392 5.3093
-3.1894 -43.6379 5.3098
-3.0856 -43.6368 5.3141
-2.9812 -43.6361 5.3292
-2.8764 -43.6356 5.3512
-2.7714 -43.6352 5.3776
-2.6663 -43.6349 5.4057
-2.5617 -43.6342 5.4247
-2.458 -43.6331 5.4295
-2.3543 -43.632 5.4338
-2.2501 -43.6312 5.4473
-2.1462 -43.6302 5.4562
-2.0431 -43.6287 5.4489
-1.9403 -43.6271 5.438
-1.8367 -43.6259 5.4412
-1.7323 -43.6253 5.4583
-1.6284 -43.6243 5.4679
-1.5255 -43.6227 5.4571
-1.4231 -43.6208 5.4382
-1.3203 -43.6192 5.4275
-1.2166 -43.6181 5.4323
-1.1123 -43.6173 5.4489
-1.0081 -43.6166 5.4629
-0.9046 -43.6153 5.4636
-0.8016 -43.6138 5.4563
-0.6985 -43.6123 5.4501
-0.595 -43.6111 5.4511
-0.4909 -43.6103 5.4643
-0.3867 -43.6096 5.4816
-0.2831 -43.6084 5.4839
-0.1805 -43.6066 5.468
-0.0777 -43.6049 5.4554
0.0258 -43.6037 5.4568
0.1295 -43.6026 5.463
0.2331 -43.6015 5.4675
0.3368 -43.6004 5.4735
0.4408 -43.5995 5.4851
0.545 -43.5989 5.5029
0.6494 -43.5984 5.525
0.7541 -43.5981 5.5545
0.8591 -43.598 5.5903
0.9634 -43.5974 5.6107
1.0664 -43.5959 5.6023
1.1693 -43.5943 5.592
1.273 -43.5933 5.5997
1.3771 -43.5926 5.6168
1.481 -43.5917 5.6301
1.5846 -43.5907 5.6377
1.6883 -43.5897 5.6445
1.7919 -43.5886 5.6509
1.8951 -43.5873 5.6489
1.9977 -43.5854 5.6316
2.1002 -43.5834 5.6085
2.2031 -43.5818 5.5986
2.3067 -43.5807 5.6044
2.4104 -43.5797 5.6138
2.5139 -43.5786 5.6184
2.6173 -43.5773 5.619
2.7207 -43.5761 5.62
2.8242 -43.575 5.6256
2.9282 -43.5743 5.6427
3.0328 -43.5742 5.6779
3.1378 -43.5745 5.7234
3.2421 -43.5742 5.7523
3.3453 -43.5728 5.7485
3.4475 -43.5705 5.7185
3.5493 -43.5678 5.6749
3.6513 -43.5652 5.6382
3.7541 -43.5634 5.6222
3.8573 -43.5619 5.6167
3.9603 -43.5603 5.6073
4.0633 -43.5587 5.5977
4.1668 -43.5576 5.6009
4.2705 -43.5567 5.6133
4.374 -43.5555 5.6166
4.477 -43.5539 5.6067
4.5801 -43.5523 5.597
4.6834 -43.551 5.5961
4.7869 -43.5499 5.6029
4.8906 -43.5491 5.6145
4.9943 -43.5482 5.6279
5.098 -43.5474 5.641
5.2017 -43.5465 5.6532
5.3052 -43.5455 5.6608
5.4086 -43.5443 5.6617
5.512 -43.5431 5.6654
5.6156 -43.5421 5.674
5.7191 -43.5411 5.681
5.8225 -43.5399 5.685
5.9258 -43.5387 5.6864
6.0291 -43.5374 5.6854
6.1324 -43.536 5.6843
6.2357 -43.5348 5.6843
6.3392 -43.5337 5.6918
6.4431 -43.5333 5.7183
6.5473 -43.5333 5.755
6.6511 -43.5329 5.7809
6.7547 -43.532 5.7929
6.8582 -43.5311 5.8033
6.9617 -43.5302 5.8152
7.0651 -43.5291 5.8212
7.1683 -43.5278 5.8194
7.2715 -43.5265 5.8184
7.3749 -43.5254 5.8253
7.4784 -43.5245 5.8362
7.5818 -43.5234 5.843
7.685 -43.5221 5.8418
7.7881 -43.5205 5.8339
7.8912 -43.5191 5.8281
7.9947 -43.5182 5.8411
8.0986 -43.5183 5.8801
8.2027 -43.5186 5.9266
8.3063 -43.5182 5.9545
8.4094 -43.5166 5.9442
8.512 -43.514 5.907
8.6147 -43.5116 5.8736
8.7176 -43.5096 5.8531
8.8207 -43.5077 5.8369
8.9237 -43.5059 5.8215
9.0267 -43.5041 5.8058
9.1297 -43.502 5.7833
9.2326 -43.4998 5.7561
9.3357 -43.4978 5.7357
9.4388 -43.4961 5.7224
9.5419 -43.4942 5.7056
9.6449 -43.492 5.6786
9.7478 -43.4895 5.6439
9.8509 -43.4872 5.6159
9.9541 -43.4857 5.6086
10.0576 -43.4846 5.6152
10.1609 -43.4835 5.6207
10.2643 -43.4822 5.6199
10.3676 -43.4807 5.6159
10.4709 -43.4794 5.6147
10.5743 -43.4782 5.6177
10.6776 -43.4768 5.6156
10.7809 -43.4752 5.6049
10.8842 -43.4734 5.5917
10.9874 -43.4717 5.579
11.0908 -43.47 5.5695
11.1941 -43.4685 5.5631
11.2974 -43.4667 5.548
11.4006 -43.4644 5.5178
11.5039 -43.4619 5.4838
11.6072 -43.4599 5.4629
11.7106 -43.4584 5.4577
11.814 -43.457 5.4552
11.9174 -43.4551 5.4368
12.0207 -43.452 5.385
12.124 -43.4479 5.3047
12.2274 -43.4436 5.2177
12.3308 -43.4396 5.1388
12.4343 -43.4358 5.0681
-20.1452 -43.8411 2.2328
-19.9962 -43.8515 2.5893
-19.8692 -43.8561 2.77
-19.742 -43.8608 2.9522
-19.612 -43.8663 3.1598
-19.4827 -43.8716 3.3623
-19.3577 -43.8758 3.5308
-19.2386 -43.8785 3.6518
-19.1245 -43.8799 3.7328
-19.0133 -43.8805 3.7896
-18.9036 -43.8807 3.8346
-18.795 -43.8807 3.8709
-18.6871 -43.8804 3.9011
-18.5786 -43.8803 3.9365
-18.4682 -43.8808 3.9884
-18.3581 -43.8811 4.0385
-18.2509 -43.8807 4.0638
-18.1461 -43.8797 4.069
-18.0417 -43.8785 4.0707
-17.9372 -43.8773 4.0734
-17.8317 -43.8764 4.0852
-17.724 -43.8762 4.1153
-17.6159 -43.876 4.1493
-17.5101 -43.8753 4.1643
-17.4056 -43.8741 4.1668
-17.3001 -43.8733 4.1796
-17.1931 -43.8729 4.2044
-17.0865 -43.8723 4.226
-16.9805 -43.8716 4.2433
-16.8736 -43.8712 4.2682
-16.7657 -43.8711 4.3023
-16.658 -43.8709 4.3347
-16.5514 -43.8704 4.3576
-16.4454 -43.8697 4.3751
-16.3387 -43.8693 4.3995
-16.2312 -43.869 4.4307
-16.1242 -43.8687 4.4582
-16.0179 -43.8681 4.4795
-15.9114 -43.8677 4.5024
-15.8047 -43.8672 4.5274
-15.6994 -43.8664 4.5393
-15.5961 -43.8649 4.5332
-15.4916 -43.8639 4.5386
-15.3851 -43.8634 4.562
-15.2794 -43.8627 4.5787
-15.1747 -43.8617 4.5857
-15.0702 -43.8606 4.5912
-14.9664 -43.8593 4.5905
-14.8631 -43.8579 4.5846
-14.7586 -43.8568 4.5902
-14.6521 -43.8564 4.6147
-14.5448 -43.8562 4.6473
-14.4376 -43.856 4.6793
-14.3306 -43.8557 4.7095
-14.2238 -43.8554 4.7377
-14.1179 -43.8548 4.7576
-14.0131 -43.8539 4.7672
-13.9084 -43.8529 4.7762
-13.8032 -43.8521 4.7895
-13.6985 -43.8512 4.7979
-13.5948 -43.8499 4.7972
-13.4909 -43.8487 4.7977
-13.3865 -43.8476 4.8033
-13.2819 -43.8466 4.8116
-13.1763 -43.846 4.829
-13.0697 -43.8456 4.8576
-12.9634 -43.8453 4.8836
-12.8586 -43.8443 4.8939
-12.7551 -43.843 4.891
-12.6517 -43.8416 4.8869
-12.5476 -43.8405 4.8905
-12.443 -43.8395 4.8994
-12.3383 -43.8386 4.9093
-12.2336 -43.8377 4.9194
-12.1291 -43.8367 4.927
-12.0251 -43.8355 4.929
-11.9218 -43.8341 4.9247
-11.8186 -43.8327 4.9184
-11.7149 -43.8314 4.918
-11.6107 -43.8303 4.9229
-11.5067 -43.8292 4.9259
-11.403 -43.8279 4.9253
-11.2994 -43.8266 4.9244
-11.1951 -43.8256 4.93
-11.0898 -43.8249 4.9473
-10.984 -43.8244 4.9702
-10.8787 -43.8237 4.9875
-10.7745 -43.8227 4.9935
-10.6707 -43.8214 4.9945
-10.5668 -43.8202 4.9961
-10.4634 -43.8189 4.9933
-10.3602 -43.8175 4.9876
-10.2564 -43.8162 4.9881
-10.1527 -43.815 4.989
-10.0498 -43.8135 4.9799
-9.9465 -43.812 4.9747
-9.8413 -43.8114 4.9919
-9.7352 -43.811 5.0202
-9.6293 -43.8106 5.0461
-9.5238 -43.8101 5.0685
-9.4191 -43.8093 5.0808
-9.3162 -43.8077 5.0711
-9.2148 -43.8056 5.0446
-9.113 -43.8036 5.022
-9.0098 -43.8022 5.0164
-8.9054 -43.8012 5.0249
-8.8004 -43.8004 5.0409
-8.6951 -43.7999 5.0612
-8.5898 -43.7993 5.0821
-8.4844 -43.7988 5.1032
-8.3793 -43.7981 5.1221
-8.2751 -43.7971 5.1283
-8.1724 -43.7955 5.1173
-8.0701 -43.7936 5.0999
-7.967 -43.7922 5.0934
-7.8623 -43.7913 5.1068
-7.7567 -43.791 5.1329
-7.6508 -43.7907 5.1623
-7.5449 -43.7904 5.1916
-7.4393 -43.79 5.2179
-7.3346 -43.7892 5.2323
-7.2313 -43.7879 5.2288
-7.1286 -43.7862 5.2177
-7.0252 -43.7849 5.215
-6.9212 -43.7839 5.2218
-6.8171 -43.7828 5.2279
-6.7135 -43.7816 5.2289
-6.6098 -43.7804 5.2313
-6.5059 -43.7793 5.2353
-6.4024 -43.778 5.2343
-6.299 -43.7767 5.2321
-6.1953 -43.7755 5.2344
-6.0914 -43.7744 5.2393
-5.9873 -43.7734 5.2462
-5.8831 -43.7724 5.2558
-5.7787 -43.7716 5.2676
-5.6745 -43.7706 5.277
-5.5705 -43.7696 5.2847
-5.4659 -43.7688 5.2991
-5.3612 -43.7682 5.3174
-5.257 -43.7672 5.3265
-5.1538 -43.7658 5.3225
-5.0509 -43.7643 5.3136
-4.9478 -43.7628 5.3077
-4.8445 -43.7614 5.3038
-4.7412 -43.7601 5.3012
-4.6373 -43.759 5.3067
-4.5329 -43.7582 5.3195
-4.4289 -43.7572 5.3275
-4.3252 -43.756 5.3301
-4.2211 -43.7551 5.3397
-4.1162 -43.7545 5.3617
-4.0112 -43.7541 5.3853
-3.9073 -43.753 5.3924
-3.8047 -43.7513 5.3786
-3.7026 -43.7493 5.3558
-3.6006 -43.7473 5.3321
-3.4981 -43.7455 5.3156
-3.3949 -43.7441 5.3116
-3.2915 -43.7428 5.3104
-3.1883 -43.7413 5.3042
-3.0848 -43.74 5.3042
-2.9804 -43.7393 5.3197
-2.8755 -43.7388 5.3432
-2.7705 -43.7384 5.3695
-2.6654 -43.738 5.3966
-2.5608 -43.7375 5.4174
-2.4568 -43.7365 5.4266
-2.353 -43.7355 5.4333
-2.2487 -43.7347 5.448
-2.1446 -43.7338 5.4593
-2.0415 -43.7323 5.453
-1.9387 -43.7307 5.4428
-1.835 -43.7296 5.448
-1.7304 -43.7291 5.4691
-1.6262 -43.7283 5.4827
-1.5234 -43.7266 5.4708
-1.4211 -43.7246 5.45
-1.3182 -43.7231 5.4403
-1.2145 -43.722 5.4463
-1.1102 -43.7213 5.4623
-1.0059 -43.7205 5.4787
-0.902 -43.7196 5.4877
-0.7987 -43.7183 5.4869
-0.6957 -43.7167 5.4783
-0.5927 -43.7152 5.4704
-0.489 -43.7141 5.4756
-0.3847 -43.7134 5.4925
-0.281 -43.7123 5.4989
-0.1781 -43.7107 5.4882
-0.0752 -43.7091 5.4782
0.0282 -43.7079 5.479
0.1318 -43.7067 5.4832
0.2354 -43.7056 5.487
0.3391 -43.7045 5.4934
0.4431 -43.7037 5.5065
0.5474 -43.7031 5.5262
0.6519 -43.7026 5.5496
0.7565 -43.7023 5.5768
0.8612 -43.7019 5.6057
0.9652 -43.7012 5.6209
1.0684 -43.6998 5.6175
1.1715 -43.6984 5.6123
1.2751 -43.6973 5.6185
1.3791 -43.6965 5.6324
1.4829 -43.6956 5.6428
1.5863 -43.6943 5.6443
1.6896 -43.693 5.6433
1.793 -43.6919 5.6468
1.8966 -43.6907 5.651
1.9996 -43.6892 5.6433
2.1022 -43.6873 5.6252
2.2052 -43.6858 5.6161
2.3087 -43.6847 5.6216
2.4124 -43.6836 5.6291
2.5158 -43.6825 5.6318
2.6193 -43.6813 5.6355
2.7229 -43.6803 5.6446
2.8268 -43.6796 5.6594
2.9311 -43.6791 5.6848
3.0356 -43.679 5.7185
3.1398 -43.6785 5.7433
3.2433 -43.6774 5.7478
3.3461 -43.6757 5.7345
3.4484 -43.6734 5.7055
3.5504 -43.6709 5.6672
3.6526 -43.6686 5.6368
3.7557 -43.667 5.6285
3.859 -43.6657 5.6281
3.9621 -43.6642 5.6212
4.0653 -43.6628 5.6155
4.1688 -43.6617 5.6217
4.2724 -43.6607 5.6308
4.3756 -43.6593 5.627
4.4785 -43.6575 5.6128
4.5816 -43.656 5.6045
4.6851 -43.6549 5.6092
4.7888 -43.654 5.6214
4.8925 -43.6531 5.6341
4.9961 -43.6522 5.644
5.0996 -43.6511 5.6503
5.203 -43.6499 5.6524
5.3063 -43.6485 5.6498
5.4096 -43.6472 5.6493
5.5132 -43.6463 5.6582
5.6168 -43.6454 5.6697
5.7203 -43.6443 5.6766
5.8237 -43.6432 5.6814
5.9272 -43.6421 5.6868
6.0306 -43.641 5.6921
6.134 -43.6398 5.6946
6.2372 -43.6384 5.6927
6.3407 -43.6373 5.6985
6.4447 -43.6371 5.7283
6.5489 -43.6371 5.7665
6.6525 -43.6364 5.7851
6.7559 -43.6352 5.7873
6.8592 -43.6341 5.7918
6.9627 -43.6331 5.8006
7.0661 -43.6319 5.8058
7.1693 -43.6307 5.8062
7.2726 -43.6295 5.8089
7.3761 -43.6286 5.8205
7.4797 -43.6278 5.8364
7.5831 -43.6268 5.8432
7.6862 -43.6252 5.8359
7.7892 -43.6236 5.8252
7.8925 -43.6223 5.8248
7.9961 -43.6217 5.8456
8.1 -43.6217 5.8848
8.2039 -43.6218 5.925
8.3075 -43.6212 5.9461
8.4105 -43.6194 5.9306
8.513 -43.6167 5.8898
8.6158 -43.6143 5.8559
8.7188 -43.6125 5.8398
8.8218 -43.6108 5.8284
8.9249 -43.6091 5.8158
9.028 -43.6073 5.8032
9.131 -43.6054 5.7854
9.234 -43.6033 5.7591
9.3369 -43.601 5.7313
9.4399 -43.5989 5.7068
9.5429 -43.5968 5.6828
9.646 -43.5946 5.6563
9.7489 -43.5923 5.6256
9.852 -43.59 5.5974
9.9552 -43.5882 5.5826
10.0585 -43.5868 5.5794
10.1619 -43.5855 5.5777
10.2652 -43.584 5.574
10.3685 -43.5826 5.569
10.4719 -43.5812 5.5682
10.5753 -43.5802 5.5761
10.6787 -43.5792 5.5849
10.7821 -43.5779 5.586
10.8854 -43.5765 5.5814
10.9887 -43.5749 5.5728
11.092 -43.5732 5.5607
11.1953 -43.5714 5.5454
11.2986 -43.5694 5.5251
11.4018 -43.5672 5.4996
11.5051 -43.565 5.4738
11.6085 -43.563 5.4527
11.7118 -43.5613 5.4409
11.8153 -43.5599 5.438
11.9187 -43.5583 5.4278
12.022 -43.5555 5.3852
12.1253 -43.5515 5.3063
12.2287 -43.547 5.2132
12.3321 -43.5429 5.1298
-20.0017 -43.9543 2.533
-19.8674 -43.9607 2.7726
-19.741 -43.9651 2.9487
-19.613 -43.97 3.1392
-19.4836 -43.9753 3.3428
-19.3571 -43.9799 3.5238
-19.2369 -43.9828 3.6538
-19.1222 -43.9843 3.7391
-19.0109 -43.9849 3.7973
-18.9019 -43.9849 3.8367
-18.7936 -43.9848 3.8697
-18.6848 -43.9847 3.9081
-18.5748 -43.9851 3.9564
-18.4638 -43.9856 4.013
-18.3537 -43.986 4.0634
-18.247 -43.9854 4.0844
-18.1433 -43.9841 4.0805
-18.0395 -43.9827 4.0773
-17.9347 -43.9816 4.0824
-17.8289 -43.9808 4.0965
-17.7218 -43.9804 4.1215
-17.6145 -43.9801 4.1496
-17.5082 -43.9794 4.1679
-17.4029 -43.9785 4.1784
-17.2971 -43.9777 4.1932
-17.1908 -43.9771 4.2124
-17.0845 -43.9765 4.2314
-16.9781 -43.9759 4.252
-16.871 -43.9755 4.2783
-16.7631 -43.9754 4.3128
-16.6549 -43.9753 4.3493
-16.5482 -43.9748 4.3734
-16.443 -43.9739 4.3837
-16.3377 -43.973 4.3954
-16.2313 -43.9725 4.4171
-16.1245 -43.9721 4.4421
-16.0179 -43.9716 4.4658
-15.911 -43.9712 4.4929
-15.8036 -43.971 4.5243
-15.6972 -43.9705 4.5471
-15.5925 -43.9694 4.5535
-15.4882 -43.9683 4.5572
-15.3829 -43.9675 4.5699
-15.2774 -43.9667 4.5845
-15.1727 -43.9657 4.5915
-15.0687 -43.9644 4.5919
-14.9651 -43.9631 4.5885
-14.8613 -43.9618 4.588
-14.7557 -43.9611 4.6037
-14.6487 -43.9608 4.6336
-14.5418 -43.9605 4.6619
-14.4361 -43.9598 4.6803
-14.3305 -43.9591 4.6963
-14.224 -43.9587 4.7218
-14.1175 -43.9583 4.7483
-14.0121 -43.9575 4.7627
-13.9073 -43.9566 4.7729
-13.8017 -43.9559 4.7897
-13.6963 -43.9552 4.8061
-13.592 -43.9541 4.8106
-13.4885 -43.9527 4.8077
-13.385 -43.9514 4.804
-13.281 -43.9502 4.8055
-13.1759 -43.9494 4.8193
-13.0695 -43.949 4.845
-12.9632 -43.9485 4.8709
-12.8581 -43.9477 4.8846
-12.7544 -43.9465 4.8839
-12.6511 -43.9451 4.8789
-12.5472 -43.9439 4.8805
-12.4424 -43.943 4.8911
-12.3372 -43.9422 4.9057
-12.2321 -43.9414 4.9203
-12.1273 -43.9405 4.9309
-12.0233 -43.9393 4.9332
-11.9204 -43.9378 4.9247
-11.8176 -43.9362 4.914
-11.7136 -43.9351 4.9165
-11.6088 -43.9342 4.9288
-11.5044 -43.9332 4.9357
-11.4008 -43.9319 4.9335
-11.2974 -43.9305 4.9298
-11.1933 -43.9294 4.9343
-11.088 -43.9287 4.9513
-10.982 -43.9283 4.9764
-10.8763 -43.9277 4.9985
-10.7716 -43.9269 5.0101
-10.6675 -43.9258 5.0147
-10.5636 -43.9246 5.0167
-10.4602 -43.9232 5.0135
-10.3569 -43.9218 5.0086
-10.2533 -43.9205 5.0079
-10.15 -43.9191 5.0038
-10.0475 -43.9174 4.9898
-9.9446 -43.9159 4.9804
-9.8398 -43.915 4.9928
-9.7338 -43.9147 5.0197
-9.6281 -43.9142 5.044
-9.5229 -43.9135 5.0614
-9.4185 -43.9126 5.0706
-9.3154 -43.9111 5.0644
-9.2133 -43.9092 5.0449
-9.1111 -43.9074 5.0271
-9.0079 -43.906 5.0216
-8.9037 -43.9049 5.028
-8.7988 -43.9042 5.043
-8.6937 -43.9035 5.0614
-8.5885 -43.9029 5.0805
-8.4831 -43.9023 5.1015
-8.3779 -43.9017 5.1218
-8.2736 -43.9007 5.1302
-8.1707 -43.8992 5.1205
-8.0686 -43.8973 5.102
-7.9656 -43.8958 5.093
-7.8611 -43.8949 5.1052
-7.7554 -43.8945 5.1317
-7.6493 -43.8943 5.1635
-7.5433 -43.8941 5.195
-7.4378 -43.8936 5.2196
-7.3334 -43.8927 5.2296
-7.2303 -43.8913 5.2242
-7.1275 -43.8897 5.2135
-7.0244 -43.8882 5.2078
-6.9207 -43.887 5.2086
-6.817 -43.8858 5.2109
-6.7132 -43.8846 5.2138
-6.6091 -43.8836 5.2207
-6.505 -43.8826 5.2289
-6.4008 -43.8816 5.2368
-6.2964 -43.8808 5.2495
-6.1919 -43.88 5.2625
-6.0879 -43.8789 5.2688
-5.9843 -43.8777 5.2693
-5.8808 -43.8764 5.2695
-5.7768 -43.8754 5.2758
-5.6725 -43.8745 5.2866
-5.5682 -43.8736 5.298
-5.4636 -43.8728 5.3129
-5.3589 -43.8721 5.3301
-5.2547 -43.8712 5.3396
-5.1515 -43.8698 5.335
-5.0489 -43.8681 5.3217
-4.9462 -43.8665 5.3107
-4.843 -43.865 5.3052
-4.7396 -43.8637 5.3031
-4.6357 -43.8627 5.3101
-4.5312 -43.8619 5.3254
-4.4269 -43.861 5.3369
-4.323 -43.86 5.3436
-4.2187 -43.8591 5.3557
-4.1138 -43.8586 5.377
-4.009 -43.858 5.3989
-3.905 -43.857 5.4073
-3.8021 -43.8554 5.3971
-3.7 -43.8535 5.376
-3.5978 -43.8515 5.3556
-3.4952 -43.8498 5.3403
-3.3923 -43.8482 5.3318
-3.2892 -43.8468 5.3254
-3.1861 -43.8453 5.3179
-3.0826 -43.844 5.3185
-2.9784 -43.8431 5.33
-2.874 -43.8424 5.3465
-2.7693 -43.8418 5.3662
-2.6645 -43.8413 5.3891
-2.5599 -43.8407 5.4095
-2.4558 -43.8398 5.4197
-2.3521 -43.8387 5.4244
-2.248 -43.8378 5.4353
-2.1439 -43.8369 5.4475
-2.0406 -43.8356 5.446
-1.9375 -43.8341 5.4388
-1.8337 -43.833 5.4461
-1.729 -43.8325 5.469
-1.6246 -43.8319 5.4874
-1.5213 -43.8305 5.4839
-1.4187 -43.8288 5.4692
-1.3158 -43.8272 5.4602
-1.2123 -43.8259 5.461
-1.1084 -43.825 5.4702
-1.0041 -43.8243 5.4871
-0.8997 -43.8237 5.507
-0.7958 -43.8227 5.5163
-0.6927 -43.8212 5.5099
-0.5899 -43.8196 5.4977
-0.4866 -43.8182 5.4962
-0.3827 -43.8173 5.506
-0.2792 -43.8161 5.5091
-0.1762 -43.8146 5.5001
-0.073 -43.8131 5.4948
0.0306 -43.812 5.5002
0.1344 -43.811 5.5085
0.2381 -43.8099 5.5137
0.3417 -43.8088 5.5182
0.4455 -43.8079 5.5277
0.5497 -43.8072 5.5461
0.6543 -43.8068 5.5717
0.7589 -43.8064 5.5998
0.8632 -43.8059 5.6209
0.9668 -43.8048 5.6268
1.0701 -43.8035 5.626
1.1736 -43.8023 5.6284
1.2772 -43.8013 5.6354
1.3811 -43.8004 5.6471
1.4848 -43.7994 5.6557
1.5879 -43.798 5.6517
1.6909 -43.7964 5.642
1.7942 -43.7951 5.6414
1.8979 -43.7941 5.6506
2.0014 -43.793 5.6545
2.1043 -43.7914 5.6455
2.2074 -43.7899 5.6379
2.3107 -43.7886 5.6387
2.4142 -43.7874 5.6408
2.5175 -43.7862 5.642
2.621 -43.7851 5.6462
2.7247 -43.7841 5.6551
2.8287 -43.7834 5.6725
2.9332 -43.7832 5.7043
3.0378 -43.783 5.7393
3.1416 -43.7823 5.755
3.2447 -43.7808 5.7501
3.3475 -43.7791 5.7346
3.4499 -43.777 5.7106
3.5522 -43.7747 5.6802
3.6547 -43.7727 5.6572
3.7578 -43.7712 5.6519
3.8611 -43.7699 5.6513
3.9642 -43.7684 5.6446
4.0674 -43.767 5.6395
4.1708 -43.7658 5.6422
4.2742 -43.7645 5.6437
4.3772 -43.763 5.6346
4.4801 -43.7612 5.6208
4.5833 -43.7598 5.6158
4.6869 -43.7588 5.6236
4.7906 -43.7579 5.6358
4.8942 -43.7569 5.6457
4.9977 -43.7559 5.6526
5.1011 -43.7546 5.6539
5.2042 -43.7531 5.6451
5.3071 -43.7513 5.6321
5.4104 -43.75 5.6314
5.5141 -43.7492 5.6454
5.6178 -43.7484 5.6597
5.7214 -43.7474 5.6677
5.8249 -43.7464 5.675
5.9285 -43.7454 5.6854
6.0321 -43.7445 5.6972
6.1355 -43.7435 5.7038
6.2388 -43.7421 5.7011
6.3422 -43.7409 5.7054
6.4461 -43.7406 5.7322
6.5501 -43.7403 5.7637
6.6536 -43.7393 5.7727
6.7567 -43.7379 5.7671
6.86 -43.7365 5.7647
6.9633 -43.7353 5.7678
7.0667 -43.7342 5.7725
7.1701 -43.7331 5.7788
7.2736 -43.7321 5.7887
7.3772 -43.7314 5.8051
7.4808 -43.7307 5.8237
7.5842 -43.7297 5.8314
7.6873 -43.7282 5.8237
7.7904 -43.7266 5.8143
7.8937 -43.7254 5.8189
7.9974 -43.7249 5.8415
8.1012 -43.7247 5.874
8.2049 -43.7244 5.9037
8.3083 -43.7234 5.9143
8.4113 -43.7216 5.8979
8.514 -43.7192 5.8649
8.6168 -43.7169 5.8348
8.7197 -43.715 5.8173
8.8229 -43.7134 5.8077
8.926 -43.7118 5.7984
9.0291 -43.7102 5.7881
9.1322 -43.7084 5.7732
9.2352 -43.7063 5.7489
9.338 -43.7039 5.7166
9.4409 -43.7015 5.6828
9.5439 -43.6992 5.6529
9.6469 -43.697 5.6261
9.7499 -43.6947 5.5958
9.853 -43.6923 5.5638
9.9561 -43.6903 5.5418
10.0594 -43.6886 5.5304
10.1627 -43.6871 5.5231
10.266 -43.6857 5.5195
10.3694 -43.6844 5.5203
10.4728 -43.6833 5.5269
10.5763 -43.6825 5.5407
10.6798 -43.6817 5.5574
10.7833 -43.6808 5.5685
10.8866 -43.6795 5.5693
10.9899 -43.6779 5.5601
11.0932 -43.6761 5.5436
11.1965 -43.6741 5.5246
11.2998 -43.6722 5.5055
11.4031 -43.6702 5.4854
11.5064 -43.6681 5.4626
11.6097 -43.666 5.4379
11.7131 -43.6641 5.4199
11.8165 -43.6627 5.4167
11.9199 -43.6612 5.4121
12.0233 -43.6588 5.377
12.1266 -43.6548 5.2989
12.2299 -43.65 5.1943
12.3334 -43.6454 5.0946
-20.0032 -44.0582 2.5091
-19.8651 -44.0655 2.7788
-19.7396 -44.0696 2.9486
-19.6139 -44.0738 3.1202
-19.4853 -44.0788 3.3174
-19.3567 -44.0839 3.515
-19.2349 -44.0872 3.6586
-19.1197 -44.0888 3.7483
-19.0083 -44.0894 3.8066
-18.8999 -44.0892 3.8414
-18.7919 -44.0889 3.8717
-18.6824 -44.0891 3.9157
-18.5712 -44.0897 3.9742
-18.4597 -44.0904 4.036
-18.3497 -44.0907 4.085
-18.2436 -44.09 4.1012
-18.1403 -44.0885 4.0934
-18.0366 -44.0871 4.0895
-17.9317 -44.0861 4.096
-17.8259 -44.0853 4.1096
-17.7192 -44.0848 4.1319
-17.6117 -44.0844 4.161
-17.5045 -44.084 4.1877
-17.3982 -44.0834 4.2062
-17.2925 -44.0826 4.2203
-17.1867 -44.0818 4.2349
-17.0806 -44.0811 4.253
-16.9741 -44.0806 4.2743
-16.8675 -44.08 4.2963
-16.7605 -44.0796 4.3228
-16.6526 -44.0795 4.3568
-16.5454 -44.0791 4.3852
-16.44 -44.0783 4.3981
-16.3354 -44.0772 4.4026
-16.2307 -44.0761 4.4092
-16.1252 -44.0753 4.4225
-16.0187 -44.0748 4.4452
-15.9108 -44.0747 4.4817
-15.8022 -44.0748 4.524
-15.6948 -44.0746 4.5554
-15.5896 -44.0737 4.5674
-15.4859 -44.0724 4.5654
-15.3821 -44.0711 4.5634
-15.2773 -44.0701 4.5717
-15.1721 -44.0692 4.5832
-15.0675 -44.0682 4.5899
-14.9631 -44.0671 4.5948
-14.8578 -44.0663 4.6071
-14.7512 -44.0658 4.6328
-14.6442 -44.0655 4.6624
-14.5385 -44.0649 4.6803
-14.4344 -44.0637 4.6829
-14.3301 -44.0626 4.6864
-14.224 -44.062 4.7079
-14.1171 -44.0617 4.7377
-14.0112 -44.0611 4.7577
-13.906 -44.0603 4.7715
-13.8002 -44.0597 4.7909
-13.6943 -44.0591 4.8113
-13.5898 -44.0581 4.8185
-13.4867 -44.0566 4.8109
-13.3839 -44.055 4.8012
-13.28 -44.0538 4.8014
-13.1748 -44.053 4.8159
-13.0687 -44.0525 4.839
-12.9626 -44.052 4.8625
-12.8574 -44.0512 4.8775
-12.7534 -44.05 4.8797
-12.6499 -44.0487 4.8769
-12.5458 -44.0475 4.8793
-12.4411 -44.0466 4.8892
-12.3361 -44.0458 4.9022
-12.2311 -44.045 4.9158
-12.1262 -44.0441 4.9272
-12.0222 -44.0429 4.9298
-11.9194 -44.0414 4.9203
-11.8164 -44.0398 4.9115
-11.7119 -44.0389 4.9202
-11.6064 -44.0382 4.939
-11.5019 -44.0372 4.9471
-11.3987 -44.0358 4.9409
-11.2956 -44.0343 4.9339
-11.1916 -44.0332 4.9375
-11.0862 -44.0325 4.9556
-10.9798 -44.0322 4.9852
-10.8736 -44.0319 5.0133
-10.7687 -44.031 5.0265
-10.6648 -44.0298 5.0285
-10.5613 -44.0285 5.0266
-10.4579 -44.0272 5.0237
-10.3542 -44.026 5.0241
-10.2503 -44.0248 5.0257
-10.1472 -44.0233 5.0197
-10.0445 -44.0217 5.0081
-9.9411 -44.0203 5.0048
-9.8365 -44.0194 5.0153
-9.7313 -44.0187 5.0333
-9.6259 -44.0181 5.0533
-9.5209 -44.0174 5.0684
-9.417 -44.0162 5.0713
-9.3141 -44.0147 5.0627
-9.2114 -44.013 5.0507
-9.1084 -44.0115 5.0432
-9.0047 -44.0103 5.0436
-8.9004 -44.0093 5.0516
-8.7958 -44.0084 5.0627
-8.6914 -44.0075 5.0722
-8.587 -44.0065 5.0817
-8.4821 -44.0058 5.0969
-8.377 -44.0051 5.1154
-8.2724 -44.0042 5.127
-8.169 -44.0029 5.1241
-8.0664 -44.0012 5.1115
-7.9633 -43.9998 5.1049
-7.859 -43.9988 5.1137
-7.7536 -43.9982 5.136
-7.6476 -43.998 5.1667
-7.5417 -43.9977 5.1976
-7.4364 -43.9972 5.2194
-7.3321 -43.9962 5.2284
-7.2286 -43.9949 5.2276
-7.1255 -43.9935 5.2215
-7.0227 -43.9919 5.2116
-6.9199 -43.9903 5.2009
-6.8166 -43.9889 5.1969
-6.7125 -43.9879 5.2045
-6.6078 -43.9872 5.2204
-6.503 -43.9864 5.2363
-6.3984 -43.9856 5.2507
-6.2936 -43.9849 5.2683
-6.1888 -43.9843 5.2857
-6.0849 -43.9832 5.2913
-5.9819 -43.9817 5.2832
-5.8791 -43.9801 5.2724
-5.7756 -43.9788 5.272
-5.6712 -43.9779 5.2845
-5.5664 -43.9773 5.3029
-5.4616 -43.9766 5.322
-5.3568 -43.976 5.3403
-5.2524 -43.9751 5.3535
-5.1489 -43.9739 5.3531
-5.0465 -43.9721 5.3376
-4.9441 -43.9703 5.3214
-4.8411 -43.9688 5.3139
-4.7377 -43.9675 5.3114
-4.6339 -43.9664 5.316
-4.5295 -43.9656 5.33
-4.425 -43.9648 5.3446
-4.3208 -43.9639 5.3553
-4.2165 -43.963 5.3687
-4.1118 -43.9624 5.3874
-4.0073 -43.9616 5.4028
-3.9037 -43.9604 5.4053
-3.8009 -43.9588 5.3946
-3.6983 -43.9571 5.3812
-3.5951 -43.9557 5.3768
-3.4918 -43.9543 5.3731
-3.389 -43.9527 5.3621
-3.2862 -43.9512 5.3523
-3.1828 -43.9498 5.3505
-3.0791 -43.9487 5.354
-2.9754 -43.9475 5.3576
-2.8717 -43.9464 5.3614
-2.7676 -43.9455 5.3713
-2.6631 -43.9448 5.3896
-2.5586 -43.9441 5.4082
-2.4546 -43.9432 5.4172
-2.3511 -43.9419 5.4181
-2.2474 -43.9408 5.4232
-2.1434 -43.9398 5.432
-2.04 -43.9386 5.4313
-1.9368 -43.9372 5.4268
-1.8328 -43.9362 5.4366
-1.7281 -43.9357 5.461
-1.6233 -43.9352 5.4847
-1.5194 -43.9343 5.4939
-1.4163 -43.9328 5.489
-1.3134 -43.9312 5.4784
-1.2105 -43.9297 5.4693
-1.1071 -43.9284 5.4685
-1.0029 -43.9276 5.4835
-0.8981 -43.9272 5.51
-0.7939 -43.9265 5.527
-0.6908 -43.925 5.5211
-0.588 -43.9234 5.509
-0.4846 -43.9221 5.5081
-0.3809 -43.921 5.5149
-0.2775 -43.9197 5.5146
-0.1745 -43.9182 5.5061
-0.0713 -43.9169 5.5036
0.0327 -43.916 5.5149
0.1369 -43.9153 5.5326
0.2409 -43.9144 5.5447
0.3445 -43.9133 5.549
0.448 -43.9121 5.5527
0.5519 -43.9112 5.5646
0.6563 -43.9107 5.586
0.7607 -43.9102 5.6099
0.8647 -43.9093 5.6228
0.9679 -43.908 5.6213
1.0714 -43.9068 5.6239
1.1754 -43.906 5.6376
1.2793 -43.9052 5.6519
1.3831 -43.9043 5.6632
1.4867 -43.9032 5.6683
1.5897 -43.9016 5.6602
1.6924 -43.8999 5.6454
1.7955 -43.8985 5.6408
1.8992 -43.8975 5.6503
2.0029 -43.8965 5.6596
2.1062 -43.8952 5.6583
2.2093 -43.8937 5.6515
2.3124 -43.8923 5.6472
2.4157 -43.891 5.6463
2.5192 -43.8898 5.6488
2.6226 -43.8886 5.6521
2.7261 -43.8875 5.6566
2.83 -43.8868 5.6723
2.9345 -43.8865 5.7044
3.039 -43.8863 5.7361
3.1427 -43.8854 5.7482
3.2459 -43.884 5.7451
3.3489 -43.8825 5.737
3.4517 -43.8808 5.7237
3.5544 -43.8789 5.7054
3.6572 -43.8772 5.6911
3.7603 -43.8757 5.6854
3.8635 -43.8743 5.6809
3.9666 -43.8728 5.6739
4.0697 -43.8713 5.6688
4.1729 -43.8699 5.666
4.276 -43.8685 5.6597
4.379 -43.8668 5.6471
4.4819 -43.8651 5.6345
4.5851 -43.8637 5.6316
4.6887 -43.8626 5.6381
4.7922 -43.8616 5.6449
4.8956 -43.8604 5.6491
4.9991 -43.8593 5.6534
5.1024 -43.858 5.6535
5.2054 -43.8563 5.6413
5.3082 -43.8544 5.6226
5.4114 -43.853 5.6166
5.515 -43.8521 5.6281
5.6187 -43.8512 5.6424
5.7223 -43.8503 5.6533
5.8259 -43.8494 5.6648
5.9296 -43.8486 5.6783
6.0333 -43.8477 5.6916
6.1368 -43.8467 5.7003
6.2401 -43.8455 5.7012
6.3435 -43.8443 5.7049
6.4472 -43.8436 5.7227
6.5509 -43.843 5.7422
6.6543 -43.8418 5.7451
6.7574 -43.8402 5.7372
6.8606 -43.8388 5.7318
6.9638 -43.8375 5.7311
7.0672 -43.8363 5.7348
7.1707 -43.8353 5.7447
7.2743 -43.8345 5.76
7.3779 -43.8338 5.7775
7.4815 -43.8331 5.7935
7.585 -43.8321 5.8027
7.6882 -43.8308 5.8036
7.7915 -43.8295 5.8021
7.8948 -43.8284 5.8083
7.9984 -43.8277 5.8246
8.102 -43.8271 5.8475
8.2056 -43.8264 5.866
8.3088 -43.8251 5.8647
8.4118 -43.8232 5.847
8.5147 -43.8212 5.8249
8.6176 -43.8192 5.8025
8.7206 -43.8173 5.7849
8.8237 -43.8157 5.7739
8.9269 -43.8141 5.7658
9.03 -43.8125 5.7564
9.1331 -43.8107 5.7417
9.2361 -43.8086 5.7176
9.339 -43.8062 5.6845
9.4418 -43.8037 5.6477
9.5448 -43.8014 5.6161
9.6478 -43.7992 5.5889
9.7508 -43.7967 5.5535
9.8538 -43.7941 5.5145
9.9569 -43.792 5.4884
10.0601 -43.7902 5.4751
10.1635 -43.7888 5.4693
10.2669 -43.7876 5.4723
10.3704 -43.7866 5.4836
10.4739 -43.7859 5.5007
10.5775 -43.7852 5.5202
10.681 -43.7845 5.5375
10.7844 -43.7836 5.5483
10.8878 -43.7822 5.5468
10.9911 -43.7805 5.5328
11.0944 -43.7786 5.515
11.1977 -43.7768 5.4998
11.301 -43.7751 5.4872
11.4043 -43.7733 5.4736
11.5077 -43.7713 5.4527
11.611 -43.7691 5.4248
11.7143 -43.7671 5.404
11.8178 -43.7657 5.4008
11.9212 -43.7643 5.3986
12.0246 -43.762 5.3695
12.1279 -43.7582 5.2942
12.2312 -43.753 5.1745
-20.0161 -44.1592 2.3926
-19.866 -44.1695 2.7597
-19.7376 -44.1743 2.9527
-19.618 -44.1768 3.0748
-19.4882 -44.1821 3.2816
-19.3583 -44.1873 3.4901
-19.235 -44.191 3.6453
-19.1186 -44.1928 3.7449
-19.0069 -44.1935 3.8064
-18.8982 -44.1934 3.843
-18.79 -44.1932 3.8761
-18.68 -44.1935 3.9242
-18.5686 -44.1941 3.9842
-18.4574 -44.1947 4.0426
-18.3481 -44.1948 4.0861
-18.242 -44.1941 4.1022
-18.1379 -44.1928 4.1016
-18.0333 -44.1917 4.1054
-17.928 -44.1907 4.1149
-17.8224 -44.1899 4.1273
-17.716 -44.1892 4.147
-17.6086 -44.1889 4.1749
-17.5013 -44.1885 4.2027
-17.395 -44.1879 4.2215
-17.2894 -44.187 4.2352
-17.1834 -44.1863 4.2513
-17.077 -44.1857 4.2719
-16.9706 -44.1851 4.2929
-16.8645 -44.1844 4.3106
-16.7579 -44.1839 4.3326
-16.6502 -44.1837 4.3655
-16.5425 -44.1835 4.3989
-16.4365 -44.1828 4.4168
-16.3324 -44.1816 4.4176
-16.2285 -44.1803 4.4159
-16.1237 -44.1793 4.4235
-16.0173 -44.1787 4.4455
-15.9089 -44.1787 4.4855
-15.8 -44.1789 4.5313
-15.6925 -44.1787 4.5637
-15.5874 -44.1778 4.5747
-15.4841 -44.1763 4.5679
-15.3812 -44.1748 4.5588
-15.2768 -44.1737 4.5628
-15.1713 -44.1729 4.5776
-15.0657 -44.1721 4.5935
-14.9601 -44.1714 4.6095
-14.8539 -44.1708 4.6312
-14.7471 -44.1705 4.6587
-14.6407 -44.17 4.6827
-14.5358 -44.169 4.6925
-14.4323 -44.1677 4.6888
-14.3284 -44.1664 4.6891
-14.2227 -44.1658 4.7072
-14.1159 -44.1654 4.7359
-14.0095 -44.165 4.761
-13.9036 -44.1643 4.7805
-13.7978 -44.1637 4.8006
-13.6922 -44.163 4.8177
-13.5882 -44.1618 4.8202
-13.4855 -44.1602 4.8089
-13.3828 -44.1586 4.7979
-13.2788 -44.1575 4.7997
-13.1735 -44.1567 4.8144
-13.0678 -44.156 4.834
-12.9619 -44.1555 4.8551
-12.8563 -44.1548 4.8738
-12.7516 -44.1539 4.883
-12.6479 -44.1526 4.8825
-12.5443 -44.1513 4.8809
-12.4402 -44.1501 4.884
-12.3357 -44.1491 4.8916
-12.2309 -44.1482 4.9029
-12.126 -44.1474 4.9149
-12.0218 -44.1463 4.9191
-11.9184 -44.1449 4.9151
-11.8146 -44.1437 4.9164
-11.7095 -44.1429 4.9309
-11.604 -44.1422 4.9493
-11.4998 -44.1411 4.9545
-11.3968 -44.1396 4.9469
-11.2934 -44.1383 4.9426
-11.1895 -44.1371 4.9449
-11.0848 -44.1362 4.9554
-10.9788 -44.1357 4.9804
-10.8725 -44.1354 5.0091
-10.7675 -44.1346 5.0237
-10.6637 -44.1334 5.0249
-10.5603 -44.132 5.0225
-10.4563 -44.1309 5.0256
-10.3515 -44.13 5.0378
-10.2473 -44.129 5.0445
-10.1442 -44.1275 5.0373
-10.0412 -44.126 5.0294
-9.9372 -44.1249 5.0333
-9.8325 -44.124 5.0458
-9.7274 -44.1233 5.0617
-9.6221 -44.1227 5.0815
-9.5173 -44.1218 5.0946
-9.4141 -44.1204 5.089
-9.3116 -44.1187 5.0752
-9.2087 -44.1172 5.0666
-9.1052 -44.1159 5.0653
-9.001 -44.1148 5.0711
-8.8964 -44.1139 5.0824
-8.7921 -44.1129 5.0909
-8.6884 -44.1117 5.0918
-8.5847 -44.1105 5.0918
-8.4805 -44.1094 5.0989
-8.3758 -44.1086 5.112
-8.2714 -44.1077 5.1228
-8.1676 -44.1065 5.1246
-8.0644 -44.1051 5.119
-7.961 -44.1037 5.1158
-7.8569 -44.1027 5.123
-7.7517 -44.1021 5.1428
-7.6458 -44.1017 5.1719
-7.5401 -44.1014 5.2002
-7.435 -44.1007 5.2196
-7.3305 -44.0999 5.2315
-7.2263 -44.0989 5.2396
-7.1225 -44.0977 5.2435
-7.0195 -44.0962 5.235
-6.9175 -44.0943 5.2152
-6.8147 -44.0927 5.2038
-6.7105 -44.0917 5.2131
-6.6054 -44.0912 5.2341
-6.5004 -44.0905 5.2532
-6.396 -44.0896 5.2654
-6.2916 -44.0888 5.2768
-6.1871 -44.0879 5.2907
-6.0831 -44.0869 5.2967
-5.9803 -44.0853 5.2865
-5.878 -44.0835 5.2697
-5.7748 -44.0821 5.2643
-5.6703 -44.0813 5.2785
-5.5651 -44.0808 5.3018
-5.46 -44.0802 5.3241
-5.3552 -44.0796 5.3428
-5.2507 -44.0788 5.3582
-5.1468 -44.0777 5.3644
-5.0439 -44.0761 5.3544
-4.9415 -44.0744 5.3393
-4.8386 -44.0728 5.3293
-4.7356 -44.0713 5.3222
-4.6322 -44.07 5.3203
-4.528 -44.0691 5.3319
-4.4232 -44.0685 5.3519
-4.3187 -44.0677 5.3673
-4.2144 -44.0669 5.3801
-4.11 -44.0661 5.3945
-4.006 -44.0651 5.4022
-3.9028 -44.0637 5.3983
-3.7999 -44.0621 5.3885
-3.6967 -44.0607 5.3838
-3.5928 -44.0597 5.3912
-3.4888 -44.0587 5.3997
-3.3857 -44.0572 5.3938
-3.2828 -44.0557 5.3854
-3.1792 -44.0545 5.3867
-3.0756 -44.0533 5.3898
-2.9723 -44.052 5.387
-2.869 -44.0506 5.3842
-2.7652 -44.0495 5.3891
-2.661 -44.0487 5.4022
-2.5567 -44.0479 5.417
-2.4528 -44.0469 5.4251
-2.3492 -44.0457 5.4263
-2.2457 -44.0445 5.4284
-2.1421 -44.0433 5.4315
-2.0389 -44.0419 5.4261
-1.9358 -44.0404 5.4196
-1.8319 -44.0394 5.4294
-1.727 -44.039 5.4544
-1.6221 -44.0386 5.4821
-1.5177 -44.0379 5.4997
-1.4143 -44.0367 5.5004
-1.3116 -44.035 5.4876
-1.209 -44.0332 5.4712
-1.1059 -44.0318 5.4658
-1.0017 -44.031 5.4814
-0.8967 -44.0307 5.5111
-0.7924 -44.03 5.5288
-0.6895 -44.0284 5.5198
-0.5868 -44.0267 5.5051
-0.4833 -44.0255 5.5072
-0.3793 -44.0246 5.5198
-0.2757 -44.0235 5.5244
-0.1726 -44.022 5.5171
-0.0695 -44.0206 5.5117
0.0345 -44.0197 5.5234
0.1392 -44.0193 5.5509
0.2437 -44.0188 5.5754
0.3474 -44.0177 5.5817
0.4505 -44.0163 5.5778
0.554 -44.0152 5.5805
0.6581 -44.0144 5.5956
0.7622 -44.0137 5.6131
0.8658 -44.0126 5.6185
0.9689 -44.0111 5.6123
1.0725 -44.01 5.6179
1.1769 -44.0095 5.6428
1.2813 -44.009 5.6663
1.3852 -44.0082 5.679
1.4886 -44.007 5.6817
1.5915 -44.0054 5.6723
1.6942 -44.0036 5.6563
1.7972 -44.0021 5.6485
1.9008 -44.0011 5.6555
2.0046 -44.0001 5.6668
2.108 -43.999 5.67
2.2112 -43.9976 5.6653
2.3143 -43.9961 5.6597
2.4176 -43.9948 5.6587
2.521 -43.9936 5.6626
2.6245 -43.9925 5.6659
2.7278 -43.9912 5.6667
2.8315 -43.9902 5.6751
2.9356 -43.9897 5.6976
3.0398 -43.9891 5.7203
3.1434 -43.9882 5.7299
3.2468 -43.987 5.7323
3.3501 -43.9857 5.7339
3.4533 -43.9844 5.7311
3.5564 -43.9829 5.7243
3.6595 -43.9814 5.7194
3.7627 -43.98 5.7156
3.8657 -43.9785 5.7085
3.9688 -43.977 5.6999
4.0718 -43.9755 5.6932
4.1749 -43.974 5.6871
4.2779 -43.9724 5.6774
4.3808 -43.9707 5.6636
4.4837 -43.969 5.6508
4.5869 -43.9676 5.6458
4.6903 -43.9663 5.6469
4.7936 -43.965 5.6468
4.8969 -43.9637 5.6456
5.0002 -43.9625 5.6471
5.1036 -43.9612 5.6484
5.2067 -43.9597 5.6398
5.3095 -43.9578 5.6201
5.4124 -43.956 5.6058
5.5158 -43.9548 5.6091
5.6195 -43.954 5.6226
5.7233 -43.9532 5.6381
5.8269 -43.9524 5.6516
5.9305 -43.9514 5.6607
6.0341 -43.9504 5.6706
6.1376 -43.9495 5.6814
6.2411 -43.9484 5.6879
6.3445 -43.9473 5.6919
6.448 -43.9462 5.6983
6.5514 -43.9451 5.704
6.6547 -43.9438 5.7029
6.7579 -43.9423 5.6982
6.8611 -43.941 5.696
6.9644 -43.9397 5.6961
7.0678 -43.9385 5.6998
7.1714 -43.9376 5.712
7.275 -43.9369 5.7289
7.3786 -43.936 5.7424
7.482 -43.935 5.7513
7.5855 -43.9341 5.7611
7.689 -43.9331 5.7722
7.7924 -43.9321 5.7799
7.8958 -43.931 5.786
7.9992 -43.93 5.7955
8.1027 -43.9292 5.8079
8.206 -43.928 5.8132
8.3091 -43.9264 5.802
8.4121 -43.9245 5.7849
8.5152 -43.9228 5.7728
8.6183 -43.9212 5.762
8.7214 -43.9195 5.7482
8.8244 -43.9177 5.7337
8.9275 -43.916 5.7202
9.0306 -43.9142 5.7062
9.1337 -43.9123 5.6885
9.2367 -43.9103 5.6653
9.3397 -43.908 5.6346
9.4426 -43.9056 5.6006
9.5456 -43.9034 5.5727
9.6487 -43.9012 5.5467
9.7516 -43.8987 5.5091
9.8546 -43.8961 5.4679
9.9577 -43.8939 5.4417
10.061 -43.8922 5.4297
10.1644 -43.8909 5.4294
10.268 -43.89 5.4419
10.3715 -43.8894 5.4629
10.4751 -43.8889 5.4874
10.5787 -43.8884 5.5098
10.6822 -43.8875 5.5227
10.7856 -43.8862 5.5243
10.8889 -43.8847 5.5152
10.9922 -43.8828 5.4993
11.0955 -43.8811 5.4863
11.1989 -43.8796 5.48
11.3022 -43.8781 5.475
11.4056 -43.8766 5.4671
11.5089 -43.8747 5.4491
11.6123 -43.8724 5.4199
11.7156 -43.8704 5.3973
11.819 -43.8689 5.3915
11.9225 -43.8675 5.3881
12.0258 -43.8653 5.3626
12.1292 -43.8617 5.2902
12.2325 -43.856 5.1565
12.3358 -43.8475 4.9389
-20.0263 -44.261 2.2988
-19.8746 -44.2715 2.6779
-19.7373 -44.2784 2.9428
-19.6266 -44.2787 2.9925
-19.4914 -44.2852 3.2434
-19.3608 -44.2906 3.4577
-19.237 -44.2943 3.6171
-19.1192 -44.2965 3.7286
-19.0062 -44.2975 3.8002
-18.8965 -44.2976 3.8448
-18.7873 -44.2976 3.8859
-18.6771 -44.2979 3.936
-18.5667 -44.2983 3.988
-18.4569 -44.2985 4.0346
-18.3483 -44.2984 4.0719
-18.2414 -44.2979 4.0948
-18.1357 -44.297 4.1079
-18.0299 -44.2962 4.1223
-17.924 -44.2955 4.1375
-17.8182 -44.2946 4.1516
-17.7122 -44.2939 4.1674
-17.6058 -44.2932 4.1866
-17.4995 -44.2926 4.2063
-17.3935 -44.2918 4.2222
-17.2878 -44.2911 4.2367
-17.1815 -44.2904 4.2557
-17.0749 -44.2898 4.278
-16.9686 -44.2892 4.2975
-16.8626 -44.2885 4.3145
-16.7559 -44.288 4.3385
-16.6479 -44.2878 4.3738
-16.5399 -44.2877 4.4087
-16.434 -44.287 4.426
-16.3299 -44.2857 4.4263
-16.2258 -44.2845 4.4277
-16.1203 -44.2837 4.4408
-16.0135 -44.2832 4.4664
-15.9055 -44.2831 4.5034
-15.7973 -44.2831 4.5421
-15.6904 -44.2827 4.5697
-15.5854 -44.2818 4.5792
-15.4822 -44.2803 4.5723
-15.379 -44.2788 4.5655
-15.2743 -44.2778 4.5726
-15.1686 -44.2771 4.5897
-15.0626 -44.2764 4.6089
-14.9568 -44.2758 4.6272
-14.851 -44.2751 4.645
-14.7451 -44.2744 4.6641
-14.6393 -44.2737 4.6822
-14.5344 -44.2728 4.6918
-14.4306 -44.2715 4.6912
-14.3266 -44.2703 4.6929
-14.2211 -44.2696 4.7086
-14.1144 -44.2692 4.7367
-14.0075 -44.2689 4.7662
-13.9012 -44.2684 4.7907
-13.7954 -44.2678 4.8103
-13.6904 -44.2669 4.8214
-13.5868 -44.2656 4.8199
-13.484 -44.264 4.8097
-13.3809 -44.2625 4.8022
-13.2768 -44.2614 4.8055
-13.1719 -44.2605 4.8165
-13.0666 -44.2597 4.8309
-12.961 -44.259 4.85
-12.8549 -44.2585 4.8731
-12.7496 -44.2578 4.8895
-12.6457 -44.2565 4.89
-12.5428 -44.255 4.881
-12.4396 -44.2536 4.8755
-12.3355 -44.2524 4.8786
-12.2308 -44.2515 4.8888
-12.1257 -44.2507 4.9024
-12.021 -44.2497 4.9122
-11.9168 -44.2486 4.9175
-11.8123 -44.2477 4.9258
-11.7072 -44.2468 4.9395
-11.6023 -44.246 4.9521
-11.4984 -44.2448 4.9549
-11.3947 -44.2436 4.9545
-11.2902 -44.2425 4.9624
-11.1863 -44.2414 4.9649
-11.0832 -44.2399 4.957
-10.9788 -44.2389 4.9655
-10.8729 -44.2384 4.9896
-10.7676 -44.2377 5.0077
-10.6633 -44.2367 5.0137
-10.5594 -44.2355 5.016
-10.4547 -44.2346 5.0275
-10.3492 -44.234 5.048
-10.2448 -44.233 5.0565
-10.1418 -44.2315 5.049
-10.0385 -44.2301 5.045
-9.934 -44.2292 5.054
-9.8288 -44.2285 5.0718
-9.7232 -44.228 5.0951
-9.6174 -44.2275 5.1199
-9.5127 -44.2266 5.1322
-9.4099 -44.2251 5.1227
-9.3079 -44.2232 5.1036
-9.2053 -44.2215 5.09
-9.1019 -44.2202 5.0874
-8.9975 -44.2192 5.0968
-8.8925 -44.2185 5.113
-8.7882 -44.2175 5.1217
-8.6849 -44.2161 5.1171
-8.582 -44.2146 5.1088
-8.4784 -44.2133 5.1079
-8.3742 -44.2123 5.1155
-8.2699 -44.2113 5.1237
-8.1662 -44.2101 5.1239
-8.0631 -44.2086 5.1179
-7.9596 -44.2073 5.1161
-7.8552 -44.2064 5.126
-7.7499 -44.2058 5.1478
-7.6441 -44.2054 5.1757
-7.5387 -44.2049 5.2
-7.4337 -44.2042 5.2176
-7.3289 -44.2035 5.2338
-7.224 -44.2028 5.2516
-7.1192 -44.2021 5.268
-7.0156 -44.2008 5.2693
-6.9137 -44.1989 5.2469
-6.8118 -44.1969 5.2244
-6.7082 -44.1957 5.2247
-6.6032 -44.1951 5.2451
-6.498 -44.1945 5.2671
-6.3937 -44.1936 5.2775
-6.2898 -44.1925 5.2826
-6.1856 -44.1915 5.2918
-6.0814 -44.1905 5.3003
-5.9782 -44.1892 5.2968
-5.8755 -44.1875 5.2843
-5.7723 -44.1861 5.2803
-5.668 -44.1852 5.2911
-5.5632 -44.1845 5.3085
-5.4586 -44.1838 5.3255
-5.354 -44.183 5.3413
-5.2494 -44.1822 5.3569
-5.1452 -44.1813 5.3675
-5.0418 -44.18 5.366
-4.939 -44.1784 5.355
-4.8364 -44.1768 5.3424
-4.7337 -44.1751 5.3307
-4.6305 -44.1737 5.3253
-4.5263 -44.1728 5.3366
-4.4213 -44.1722 5.359
-4.3168 -44.1715 5.3744
-4.2128 -44.1705 5.3835
-4.1085 -44.1696 5.3961
-4.0044 -44.1687 5.4063
-3.9009 -44.1674 5.406
-3.7979 -44.166 5.3995
-3.6947 -44.1645 5.3939
-3.591 -44.1634 5.398
-3.4868 -44.1625 5.4096
-3.3831 -44.1614 5.4141
-3.2798 -44.16 5.4112
-3.1764 -44.1587 5.4103
-3.0731 -44.1574 5.4087
-2.9698 -44.1561 5.4055
-2.8663 -44.1548 5.4066
-2.7623 -44.1538 5.4145
-2.6583 -44.1529 5.4246
-2.5544 -44.1519 5.4326
-2.4507 -44.1507 5.4371
-2.3471 -44.1496 5.4399
-2.2434 -44.1484 5.4445
-2.1399 -44.1472 5.4463
-2.0369 -44.1457 5.4383
-1.934 -44.1442 5.429
-1.8302 -44.1431 5.434
-1.7257 -44.1424 5.4541
-1.6209 -44.142 5.4799
-1.5164 -44.1413 5.4995
-1.4128 -44.1402 5.5026
-1.3101 -44.1385 5.49
-1.2075 -44.1368 5.4745
-1.1042 -44.1354 5.4726
-0.9997 -44.1348 5.4921
-0.8947 -44.1345 5.5228
-0.7905 -44.1338 5.5397
-0.6879 -44.132 5.524
-0.5856 -44.13 5.5022
-0.482 -44.1289 5.5057
-0.3776 -44.1283 5.5261
-0.2736 -44.1274 5.5393
-0.1704 -44.126 5.5349
-0.0675 -44.1244 5.5258
0.0362 -44.1234 5.5323
0.1411 -44.1231 5.5629
0.2461 -44.1229 5.5974
0.35 -44.122 5.6088
0.4529 -44.1205 5.5997
0.5562 -44.1191 5.5975
0.6602 -44.1183 5.6126
0.7642 -44.1175 5.6273
0.8675 -44.1162 5.6257
0.9704 -44.1146 5.6153
1.074 -44.1135 5.6211
1.1785 -44.1131 5.648
1.283 -44.1127 5.6742
1.387 -44.1119 5.6893
1.4905 -44.1107 5.6935
1.5935 -44.1092 5.6866
1.6962 -44.1075 5.6727
1.7992 -44.106 5.664
1.9027 -44.1049 5.6697
2.0066 -44.1041 5.6838
2.1103 -44.1031 5.6938
2.2137 -44.1019 5.6946
2.3168 -44.1004 5.6899
2.42 -44.0991 5.6863
2.5234 -44.0979 5.6885
2.6269 -44.0967 5.6933
2.7302 -44.0955 5.6934
2.8334 -44.0941 5.6912
2.9369 -44.093 5.6966
3.0407 -44.0921 5.7083
3.1443 -44.0912 5.7186
3.248 -44.0902 5.7277
3.3515 -44.0891 5.7354
3.4549 -44.0879 5.737
3.5581 -44.0866 5.7342
3.6613 -44.0853 5.7334
3.7646 -44.084 5.7332
3.8677 -44.0825 5.7279
3.9707 -44.081 5.7196
4.0738 -44.0795 5.7127
4.1769 -44.078 5.7063
4.2799 -44.0764 5.6959
4.3827 -44.0746 5.6806
4.4855 -44.0728 5.6644
4.5885 -44.0712 5.6524
4.6915 -44.0696 5.6449
4.7947 -44.0682 5.6396
4.8979 -44.0668 5.6362
5.0013 -44.0655 5.6361
5.1046 -44.0643 5.6374
5.2078 -44.0628 5.632
5.3107 -44.061 5.615
5.4135 -44.0592 5.5977
5.5168 -44.0578 5.5941
5.6204 -44.0569 5.6062
5.7242 -44.0562 5.6244
5.8278 -44.0552 5.6338
5.9312 -44.0539 5.6344
6.0347 -44.0529 5.6421
6.1384 -44.0521 5.6568
6.2419 -44.0511 5.6678
6.3454 -44.05 5.672
6.4486 -44.0487 5.6703
6.5518 -44.0472 5.6644
6.655 -44.0457 5.659
6.7583 -44.0444 5.6585
6.8617 -44.0433 5.6628
6.9651 -44.0421 5.6676
7.0686 -44.0411 5.6739
7.1722 -44.0402 5.6871
7.2758 -44.0394 5.7017
7.3792 -44.0383 5.7073
7.4825 -44.037 5.7084
7.586 -44.036 5.7179
7.6896 -44.0353 5.7342
7.7931 -44.0344 5.7462
7.8965 -44.0333 5.7523
7.9998 -44.0321 5.7561
8.1031 -44.0308 5.7557
8.2062 -44.0292 5.746
8.3092 -44.0274 5.7292
8.4123 -44.0257 5.7178
8.5156 -44.0244 5.7176
8.6189 -44.0231 5.7177
8.7221 -44.0215 5.707
8.8251 -44.0196 5.6889
8.9281 -44.0177 5.6703
9.0312 -44.0158 5.6506
9.1343 -44.0139 5.6307
9.2373 -44.0119 5.6103
9.3403 -44.0098 5.5832
9.4433 -44.0075 5.5535
9.5464 -44.0055 5.5309
9.6496 -44.0035 5.5088
9.7526 -44.0011 5.4763
9.8556 -43.9987 5.4414
9.9588 -43.9967 5.4183
10.0621 -43.995 5.4079
10.1656 -43.9938 5.4095
10.2691 -43.993 5.425
10.3727 -43.9925 5.4493
10.4764 -43.9921 5.4764
10.5799 -43.9915 5.4986
10.6834 -43.9905 5.5072
10.7867 -43.989 5.5009
10.89 -43.9871 5.4853
10.9933 -43.9853 5.4693
11.0967 -43.9838 5.4632
11.2001 -43.9826 5.4664
11.3035 -43.9814 5.4685
11.4069 -43.98 5.4643
11.5102 -43.9781 5.4472
11.6135 -43.9758 5.4171
11.7169 -43.9737 5.3921
11.8203 -43.9721 5.3818
11.9237 -43.9706 5.3742
12.0271 -43.9684 5.3484
12.1305 -43.9648 5.2763
12.2338 -43.959 5.1374
12.3371 -43.9506 4.9208
12.5443 -43.9285 4.3177
12.6482 -43.9189 4.0626
12.7523 -43.9126 3.9076
-20.0306 -44.3644 2.2522
-19.8734 -44.3761 2.6764
-19.7342 -44.3834 2.9563
-19.6231 -44.3837 3.0093
-19.4921 -44.3891 3.2256
-19.3627 -44.3941 3.4301
-19.2386 -44.3978 3.5919
-19.1196 -44.4002 3.713
-19.0051 -44.4015 3.7974
-18.8939 -44.402 3.8548
-18.7835 -44.4023 3.9055
-18.6734 -44.4026 3.955
-18.5643 -44.4026 3.996
-18.4561 -44.4024 4.0291
-18.3481 -44.4021 4.0616
-18.2404 -44.4018 4.0916
-18.1333 -44.4013 4.1164
-18.0266 -44.4007 4.1382
-17.92 -44.4001 4.1588
-17.8139 -44.3994 4.1759
-17.7084 -44.3985 4.1879
-17.603 -44.3976 4.199
-17.4971 -44.3968 4.2147
-17.3909 -44.3961 4.2324
-17.2851 -44.3953 4.2472
-17.1792 -44.3946 4.263
-17.0731 -44.3939 4.2812
-16.9672 -44.3931 4.2973
-16.861 -44.3925 4.3158
-16.7537 -44.3921 4.3445
-16.6457 -44.3919 4.3804
-16.5384 -44.3916 4.4097
-16.4331 -44.3907 4.4213
-16.3287 -44.3896 4.4247
-16.2234 -44.3887 4.4361
-16.1173 -44.388 4.4557
-16.0106 -44.3875 4.4803
-15.9032 -44.3872 4.5115
-15.7956 -44.387 4.545
-15.6886 -44.3866 4.5728
-15.5833 -44.3858 4.5856
-15.4796 -44.3845 4.5834
-15.3756 -44.3832 4.5839
-15.2704 -44.3824 4.5958
-15.1648 -44.3816 4.6115
-15.0594 -44.3808 4.6259
-14.9543 -44.3799 4.6368
-14.8497 -44.3788 4.6434
-14.7448 -44.3779 4.6534
-14.6392 -44.3771 4.6698
-14.5339 -44.3763 4.6831
-14.4295 -44.3752 4.6881
-14.3252 -44.3741 4.6926
-14.2197 -44.3733 4.7078
-14.113 -44.3729 4.7356
-14.006 -44.3727 4.767
-13.8995 -44.3722 4.7937
-13.7938 -44.3715 4.8119
-13.689 -44.3706 4.8212
