55.8033 -77.8564 1.385
56.0315 -77.864 1.2889
56.2652 -77.8747 1.1594
56.4985 -77.8851 1.0342
56.7213 -77.8892 0.9746
56.9454 -77.894 0.9075
57.1719 -77.9001 0.8267
57.3935 -77.9032 0.7768
57.616 -77.9068 0.7217
57.8398 -77.9112 0.6595
58.0605 -77.9137 0.6163
58.2807 -77.9158 0.5772
58.5084 -77.9222 0.4935
58.7314 -77.9258 0.4386
58.9575 -77.9311 0.3665
-16.4415 -79.2607 -3.0629
-16.1457 -79.1842 -2.3233
-15.8816 -79.1355 -1.8624
-15.6104 -79.0797 -1.33
-15.3515 -79.0345 -0.9037
-15.11 -79.0049 -0.6346
-14.8793 -78.9849 -0.4615
-14.6546 -78.9705 -0.3442
-14.4342 -78.9598 -0.2652
-14.213 -78.9483 -0.1775
-13.995 -78.9397 -0.119
-13.7773 -78.9314 -0.0633
-13.5584 -78.9218 0.0058
-13.3406 -78.9133 0.0641
-13.1275 -78.9092 0.077
-12.9127 -78.9035 0.1074
-12.6964 -78.896 0.1545
-12.4798 -78.8883 0.2044
-12.2657 -78.8832 0.2289
-12.0492 -78.8754 0.2795
-11.8309 -78.8656 0.3501
-11.6154 -78.8588 0.3921
-11.399 -78.8508 0.445
-11.1825 -78.8427 0.4989
-10.9672 -78.8357 0.5419
-10.7537 -78.8307 0.5653
-10.5398 -78.8251 0.5939
-10.3235 -78.8169 0.6497
-10.1078 -78.8092 0.6998
-9.8921 -78.8015 0.7505
-9.6757 -78.7929 0.81
-9.4602 -78.7852 0.8608
-9.2477 -78.7808 0.8778
-9.0336 -78.7745 0.9144
-8.8183 -78.7668 0.9648
-8.6044 -78.7606 1.0001
-8.3898 -78.7535 1.0444
-8.1772 -78.7487 1.0658
-7.964 -78.7433 1.094
-7.7487 -78.7351 1.1498
-7.5355 -78.7294 1.1803
-7.3234 -78.7251 1.1974
-7.1094 -78.7184 1.2382
-6.8947 -78.7106 1.2901
-6.6811 -78.7041 1.3289
-6.4679 -78.698 1.3633
-6.257 -78.695 1.3676
-6.047 -78.6932 1.3588
-5.8352 -78.689 1.3747
-5.6211 -78.6814 1.4245
-5.4042 -78.6701 1.5129
-5.1897 -78.6617 1.5704
-4.9769 -78.6557 1.6052
-4.7636 -78.649 1.6467
-4.5504 -78.6422 1.6891
-4.3375 -78.6358 1.7271
-4.1248 -78.6296 1.7635
-3.9122 -78.6234 1.7998
-3.6998 -78.6174 1.8335
-3.4861 -78.6094 1.8887
-3.2726 -78.6016 1.9412
-3.0609 -78.5964 1.9676
-2.8496 -78.592 1.9865
-2.6372 -78.5855 2.0256
-2.426 -78.581 2.0449
-2.2135 -78.5742 2.088
-2.0001 -78.566 2.1455
-1.7877 -78.5591 2.189
-1.5755 -78.5525 2.2302
-1.3645 -78.5479 2.2506
-1.154 -78.544 2.2639
-0.9428 -78.539 2.2891
-0.7313 -78.5333 2.321
-0.5195 -78.527 2.3592
-0.3081 -78.5213 2.3911
-0.0968 -78.5156 2.4232
0.1149 -78.5092 2.4626
0.326 -78.5038 2.4915
0.5356 -78.5012 2.4921
0.747 -78.4952 2.5278
0.9581 -78.4893 2.5618
1.1689 -78.4841 2.5887
1.38 -78.4783 2.6226
1.5907 -78.4733 2.648
1.8009 -78.4691 2.6645
2.0126 -78.4614 2.717
2.2245 -78.4533 2.774
2.4343 -78.4497 2.7856
2.6442 -78.446 2.7974
2.8551 -78.4397 2.8364
3.0652 -78.4353 2.856
3.2748 -78.4319 2.8649
3.4837 -78.4305 2.8542
3.6927 -78.4289 2.8461
3.9032 -78.4231 2.8793
4.1137 -78.4174 2.9129
4.3244 -78.4107 2.9551
4.5346 -78.4056 2.9826
4.7453 -78.3986 3.0289
4.9558 -78.3921 3.0699
5.1649 -78.3896 3.0702
5.3741 -78.3869 3.0726
5.5843 -78.3809 3.1095
5.7948 -78.3739 3.1549
6.0046 -78.3688 3.1821
6.2139 -78.3656 3.1908
6.4226 -78.3642 3.1804
6.632 -78.3606 3.1922
6.8421 -78.3538 3.2365
7.0521 -78.3472 3.2789
7.2615 -78.343 3.2975
7.4707 -78.3398 3.3058
7.6805 -78.3332 3.348
7.8903 -78.3267 3.3896
8.0995 -78.323 3.4031
8.3084 -78.3204 3.4053
8.5177 -78.3157 3.429
8.7275 -78.308 3.483
8.9366 -78.3039 3.5008
9.1453 -78.3019 3.497
9.3545 -78.2976 3.5168
9.5635 -78.2931 3.5381
9.7727 -78.2882 3.5641
9.9817 -78.2836 3.5871
10.191 -78.2769 3.6314
10.4002 -78.2708 3.6699
10.609 -78.267 3.6839
10.8176 -78.2647 3.6839
11.0264 -78.2608 3.6995
11.2355 -78.2542 3.7432
11.4443 -78.2489 3.7734
11.653 -78.245 3.7898
11.8616 -78.2428 3.7881
12.0702 -78.2395 3.7986
12.2789 -78.2351 3.8196
12.4876 -78.2299 3.8491
12.6962 -78.226 3.8653
12.9047 -78.2226 3.8764
13.1133 -78.2178 3.9013
13.3218 -78.2136 3.9212
13.5303 -78.2121 3.9128
13.7388 -78.2092 3.9194
13.9473 -78.2049 3.9402
14.1558 -78.2016 3.95
14.3641 -78.1941 4.0033
14.5724 -78.1887 4.0354
14.7809 -78.1883 4.0167
14.9893 -78.1849 4.0281
15.1976 -78.1804 4.0512
15.4059 -78.1763 4.0692
15.6142 -78.173 4.0803
15.8226 -78.1711 4.0766
16.031 -78.168 4.0852
16.2391 -78.1633 4.1101
16.4474 -78.1602 4.1197
16.6563 -78.1624 4.0738
16.8652 -78.1635 4.0407
17.0733 -78.1584 4.069
17.2812 -78.1525 4.1073
17.4892 -78.1476 4.1341
17.6972 -78.143 4.1585
17.9053 -78.1388 4.1788
18.1132 -78.1345 4.2006
18.3211 -78.1294 4.2297
18.5287 -78.1237 4.266
18.7371 -78.1218 4.2624
18.9452 -78.1183 4.2757
19.1529 -78.1135 4.3032
19.3605 -78.1082 4.3347
19.5684 -78.1044 4.3506
19.7769 -78.1031 4.3418
19.9848 -78.0994 4.3578
20.1927 -78.0956 4.3746
20.4011 -78.0939 4.3695
20.6092 -78.0912 4.3752
20.8166 -78.0859 4.4071
21.0243 -78.0817 4.4282
21.2325 -78.0793 4.4305
21.4405 -78.0764 4.4382
21.6484 -78.0729 4.4519
21.856 -78.0689 4.4712
22.0634 -78.064 4.4992
22.2709 -78.0598 4.5212
22.4789 -78.057 4.5275
22.6868 -78.0539 4.5372
22.8945 -78.0506 4.5495
23.1018 -78.0458 4.5769
23.309 -78.0411 4.6037
23.517 -78.0385 4.6083
23.7259 -78.0383 4.589
23.9335 -78.0346 4.6051
24.1401 -78.0286 4.645
24.3475 -78.0246 4.665
24.5558 -78.0228 4.6625
24.7658 -78.0247 4.6209
24.9737 -78.0219 4.628
25.1802 -78.0161 4.6662
25.3891 -78.0155 4.6518
25.598 -78.0149 4.6368
25.8056 -78.0113 4.6518
26.0143 -78.0103 4.6409
26.2241 -78.0113 4.6102
26.4337 -78.0119 4.5831
26.6423 -78.0102 4.579
26.85 -78.0069 4.592
27.0593 -78.0068 4.5719
27.2697 -78.0084 4.5342
27.4792 -78.0084 4.5141
27.6879 -78.0069 4.5078
27.8968 -78.0056 4.501
28.1058 -78.0046 4.4902
28.3136 -78.0013 4.503
28.5225 -78 4.4954
28.7329 -78.0013 4.4621
28.9426 -78.0011 4.443
29.1508 -77.9987 4.4477
29.3589 -77.9958 4.4563
29.5669 -77.993 4.4644
29.7759 -77.9916 4.4583
29.9849 -77.9904 4.4504
30.1939 -77.989 4.4442
30.4024 -77.9868 4.4457
30.6122 -77.9867 4.4273
30.822 -77.9862 4.4111
31.0294 -77.9824 4.4298
31.2384 -77.981 4.424
31.4481 -77.9804 4.41
31.6576 -77.9796 4.3979
31.8683 -77.9804 4.3696
32.0787 -77.9808 4.346
32.2888 -77.9805 4.3283
32.4993 -77.9808 4.3049
32.7091 -77.9803 4.2907
32.9189 -77.9795 4.2788
33.1282 -77.9781 4.2725
33.3383 -77.9777 4.2572
33.5494 -77.9786 4.2281
33.7589 -77.9773 4.2214
33.966 -77.9731 4.2444
34.1734 -77.9692 4.265
34.3821 -77.967 4.2673
34.5924 -77.9667 4.2508
34.8017 -77.9652 4.2466
35.0105 -77.963 4.2493
35.2199 -77.9615 4.2451
35.4299 -77.9608 4.2331
35.6413 -77.9616 4.2051
35.8508 -77.9601 4.2004
36.0601 -77.9584 4.1985
36.2681 -77.9553 4.2104
36.4761 -77.9521 4.2239
36.6928 -77.9586 4.1383
36.9048 -77.9598 4.1063
37.0982 -77.9408 4.2825
37.2983 -77.9293 4.3812
37.5232 -77.9442 4.2085
37.7411 -77.9515 4.114
37.9511 -77.9504 4.1063
38.1618 -77.95 4.091
38.3746 -77.9516 4.0548
38.5893 -77.9552 3.9989
38.804 -77.9587 3.9442
39.0169 -77.9602 3.9092
39.2296 -77.9616 3.8763
39.4431 -77.9636 3.8363
39.6567 -77.9656 3.7964
39.8703 -77.9677 3.7565
40.0832 -77.9688 3.7254
40.2929 -77.9669 3.726
40.505 -77.9673 3.703
40.7177 -77.9682 3.6748
40.9307 -77.9694 3.6437
41.1436 -77.9704 3.6152
41.3556 -77.9705 3.5951
41.5666 -77.9696 3.5851
41.7758 -77.9672 3.5916
41.9848 -77.9645 3.6007
42.1969 -77.9646 3.5806
42.4128 -77.968 3.5264
42.6291 -77.9717 3.4702
42.8446 -77.9745 3.4224
43.0612 -77.9783 3.3649
43.2769 -77.9812 3.316
43.4911 -77.9827 3.282
43.7073 -77.986 3.2299
43.9237 -77.9893 3.1778
44.1355 -77.9886 3.166
44.3443 -77.9854 3.1805
44.5516 -77.981 3.2071
44.7614 -77.9788 3.2122
44.9756 -77.98 3.1812
45.1876 -77.9795 3.1681
45.3991 -77.9785 3.1602
45.612 -77.9786 3.1404
45.8301 -77.9827 3.0797
46.0513 -77.9893 2.994
46.2722 -77.9955 2.9121
46.4891 -77.9985 2.863
46.7056 -78.0011 2.8182
46.921 -78.0027 2.7833
47.1363 -78.0043 2.749
47.3537 -78.0074 2.6987
47.5698 -78.0094 2.6602
47.787 -78.0122 2.6131
48.0059 -78.0162 2.5537
48.2169 -78.0143 2.555
48.4252 -78.0105 2.5769
48.6333 -78.0065 2.6003
48.8393 -78.0009 2.6394
49.0444 -77.9948 2.6845
49.2506 -77.9895 2.7216
49.4608 -77.9871 2.7282
49.6789 -77.9903 2.6783
49.8969 -77.9933 2.6288
50.1101 -77.9929 2.6155
50.3248 -77.9936 2.5911
50.5392 -77.9939 2.5696
50.7553 -77.9955 2.5357
50.9792 -78.0023 2.4483
51.2172 -78.0185 2.2628
51.4516 -78.0322 2.1042
51.6686 -78.0339 2.0685
51.886 -78.0359 2.0306
52.1108 -78.0428 1.9424
52.3288 -78.045 1.9015
52.5484 -78.0483 1.8505
52.7677 -78.0513 1.8021
52.9876 -78.0546 1.7502
53.209 -78.0588 1.6893
53.4264 -78.0605 1.6551
53.6395 -78.0592 1.6502
53.8516 -78.0574 1.6518
54.0614 -78.0541 1.6689
54.2738 -78.0524 1.6687
54.4861 -78.0507 1.6691
54.7001 -78.05 1.6591
54.9168 -78.051 1.6316
55.134 -78.0522 1.6019
55.3548 -78.0556 1.5497
55.5803 -78.0619 1.4679
55.8062 -78.0683 1.3851
56.0365 -78.0772 1.2756
56.2686 -78.0871 1.1564
56.5018 -78.0975 1.0318
56.7294 -78.1045 0.9425
56.9552 -78.1103 0.8656
57.1813 -78.1162 0.7876
57.4026 -78.1192 0.7393
57.6217 -78.1209 0.7047
57.8463 -78.1257 0.638
58.0677 -78.1286 0.5912
58.2867 -78.1302 0.5586
58.5129 -78.1357 0.4846
58.7363 -78.1396 0.427
58.9725 -78.1507 0.2963
-16.4003 -79.4397 -2.7103
-16.1261 -79.3821 -2.1648
-15.8613 -79.3323 -1.6964
-15.591 -79.2768 -1.1711
-15.3356 -79.2344 -0.7764
-15.0991 -79.2091 -0.5517
-14.8715 -79.1919 -0.4086
-14.6475 -79.1779 -0.2968
-14.428 -79.1681 -0.2265
-14.2106 -79.1601 -0.1747
-13.9942 -79.1532 -0.1327
-13.7767 -79.1449 -0.078
-13.5576 -79.1351 -0.0079
-13.3397 -79.1263 0.0526
-13.1258 -79.1215 0.0734
-12.9114 -79.1161 0.0997
-12.6958 -79.1095 0.1378
-12.4797 -79.1022 0.1832
-12.2642 -79.0955 0.223
-12.0463 -79.0863 0.2875
-11.8279 -79.0765 0.3588
-11.6118 -79.0688 0.408
-11.3967 -79.0622 0.4468
-11.1819 -79.0559 0.4828
-10.9673 -79.0497 0.5169
-10.7531 -79.0439 0.5484
-10.538 -79.037 0.5898
-10.3212 -79.0282 0.6511
-10.1054 -79.0204 0.7018
-9.8902 -79.0131 0.7476
-9.6748 -79.0056 0.7955
-9.4606 -78.9993 0.8318
-9.2479 -78.9948 0.8499
-9.0335 -78.9882 0.8892
-8.8178 -78.9799 0.9451
-8.603 -78.9727 0.9905
-8.3883 -78.9655 1.0358
-8.1758 -78.9608 1.056
-7.9633 -78.9562 1.0752
-7.7496 -78.9499 1.1116
-7.5367 -78.9447 1.1368
-7.3228 -78.9381 1.1771
-7.1081 -78.9305 1.2267
-6.8942 -78.9237 1.2682
-6.6822 -78.9193 1.2859
-6.4677 -78.9116 1.3361
-6.2552 -78.9064 1.3614
-6.0463 -78.906 1.3391
-5.8342 -78.9015 1.3586
-5.6205 -78.8945 1.402
-5.4055 -78.8856 1.4648
-5.1901 -78.8761 1.534
-4.975 -78.8668 1.601
-4.7615 -78.8596 1.6462
-4.5493 -78.8544 1.6724
-4.3377 -78.8498 1.6922
-4.124 -78.8423 1.742
-3.9115 -78.8362 1.7771
-3.6989 -78.83 1.8126
-3.4859 -78.823 1.8566
-3.2717 -78.8141 1.9204
-3.0586 -78.8067 1.9684
-2.8473 -78.8022 1.9876
-2.6356 -78.7968 2.0161
-2.4237 -78.7912 2.0471
-2.2112 -78.7844 2.0886
-1.9994 -78.7787 2.1201
-1.7875 -78.7728 2.1537
-1.5747 -78.7652 2.2049
-1.3627 -78.7588 2.2433
-1.1523 -78.7552 2.2538
-0.9416 -78.751 2.2703
-0.7303 -78.7457 2.2975
-0.518 -78.7384 2.3456
-0.3059 -78.7315 2.3893
-0.0943 -78.7252 2.4272
0.1167 -78.7201 2.4533
0.3273 -78.7155 2.4735
0.5373 -78.7125 2.4791
0.7487 -78.7062 2.5166
0.9592 -78.7017 2.5364
1.1702 -78.6962 2.5668
1.3822 -78.6884 2.6199
1.5926 -78.6838 2.641
1.8026 -78.6801 2.6527
2.0146 -78.672 2.7095
2.2273 -78.6617 2.7877
2.437 -78.6585 2.7949
2.6462 -78.6564 2.7907
2.8566 -78.6514 2.817
3.0669 -78.6465 2.8407
3.2772 -78.6415 2.8658
3.4865 -78.6389 2.868
3.6952 -78.638 2.8522
3.905 -78.6343 2.8643
4.1155 -78.6285 2.8975
4.3261 -78.6222 2.9368
4.5364 -78.6167 2.9673
4.7475 -78.6084 3.0261
4.958 -78.6018 3.0677
5.1669 -78.6001 3.0607
5.3759 -78.5983 3.0544
5.586 -78.5925 3.0879
5.7966 -78.585 3.1391
6.0071 -78.5777 3.1879
6.2163 -78.5744 3.1966
6.425 -78.5735 3.1816
6.6343 -78.5701 3.1914
6.8441 -78.5647 3.2218
7.0539 -78.5588 3.2568
7.2633 -78.5549 3.2718
7.4724 -78.5518 3.2788
7.6823 -78.5449 3.324
7.8922 -78.5383 3.3667
8.1013 -78.5348 3.3782
8.3102 -78.5323 3.3793
8.5194 -78.5284 3.3943
8.7292 -78.521 3.4455
8.9389 -78.5135 3.4964
9.1477 -78.5111 3.4968
9.3564 -78.5096 3.4883
9.5655 -78.5052 3.5091
9.7748 -78.4994 3.5439
9.9838 -78.495 3.5648
10.1929 -78.4898 3.5933
10.402 -78.484 3.6283
10.611 -78.4793 3.6521
10.8199 -78.4752 3.6699
11.0288 -78.4697 3.7017
11.2378 -78.4638 3.7377
11.4466 -78.4595 3.7572
11.6553 -78.4555 3.7739
11.8639 -78.4521 3.7854
12.0726 -78.449 3.7927
12.2812 -78.4456 3.8039
12.4899 -78.4398 3.8392
12.6985 -78.4354 3.8604
12.9071 -78.4323 3.8691
13.1157 -78.4267 3.902
13.3242 -78.4219 3.9279
13.5327 -78.4205 3.9187
13.7412 -78.4192 3.9087
13.9497 -78.4153 3.9247
14.1582 -78.411 3.9454
14.3666 -78.4054 3.9785
14.5749 -78.4004 4.0069
14.7833 -78.3976 4.012
14.9917 -78.3936 4.03
15.1999 -78.3886 4.0571
15.4083 -78.3852 4.0685
15.6166 -78.3814 4.0845
15.8249 -78.3786 4.0903
16.0333 -78.3763 4.0909
16.2416 -78.3727 4.104
16.4501 -78.3712 4.0968
16.6592 -78.3749 4.0376
16.8681 -78.376 4.004
17.0763 -78.3712 4.03
17.2841 -78.3645 4.0749
17.4921 -78.3591 4.1069
17.7003 -78.3558 4.1186
17.9084 -78.3519 4.1354
18.1163 -78.3463 4.1692
18.3238 -78.3397 4.2142
18.5313 -78.3327 4.2627
18.7395 -78.3302 4.266
18.9479 -78.3284 4.2622
19.1557 -78.3234 4.2901
19.3631 -78.3173 4.3301
19.5709 -78.3132 4.35
19.7794 -78.3119 4.3404
19.9875 -78.3087 4.3512
20.1952 -78.3045 4.3717
20.4035 -78.3021 4.3737
20.612 -78.3007 4.3668
20.8199 -78.2971 4.3815
21.0274 -78.2923 4.4081
21.2354 -78.2894 4.4159
21.4433 -78.286 4.4287
21.6511 -78.2823 4.4439
21.8588 -78.2784 4.4626
22.0665 -78.2744 4.4812
22.2741 -78.2704 4.5001
22.4816 -78.2662 4.5207
22.6893 -78.2626 4.5357
22.8971 -78.2593 4.5482
23.1046 -78.2551 4.5696
23.3127 -78.2528 4.5707
23.5202 -78.2488 4.5903
23.7281 -78.2458 4.6
23.9358 -78.2424 4.6125
24.1425 -78.2367 4.6489
24.3498 -78.2327 4.6692
24.5588 -78.2324 4.6507
24.7687 -78.2342 4.6115
24.9765 -78.231 4.6228
25.1838 -78.2269 4.6435
25.3933 -78.2276 4.6154
25.6019 -78.2262 4.6084
25.8083 -78.2202 4.6479
26.0168 -78.2186 4.6439
26.2265 -78.2194 4.6141
26.4364 -78.2207 4.5808
26.6452 -78.2195 4.5723
26.8532 -78.2167 4.5792
27.0631 -78.2176 4.5493
27.2733 -78.219 4.5143
27.4825 -78.2183 4.5011
27.6907 -78.216 4.504
27.8994 -78.2143 4.501
28.1083 -78.2131 4.4923
28.3158 -78.2093 4.51
28.5255 -78.2094 4.4884
28.7363 -78.2113 4.4491
28.9453 -78.2102 4.4399
29.1534 -78.2073 4.4483
29.362 -78.2054 4.4474
29.5715 -78.2048 4.4331
29.7812 -78.2047 4.4138
29.9897 -78.2025 4.4162
30.1978 -78.1997 4.4246
30.4069 -78.1984 4.4176
30.616 -78.1972 4.4096
30.8244 -78.1947 4.4144
31.0319 -78.1911 4.4314
31.2414 -78.1904 4.4182
31.4517 -78.1906 4.3959
31.661 -78.1896 4.386
31.871 -78.1894 4.3686
32.0815 -78.1898 4.3439
32.2923 -78.1906 4.3161
32.5024 -78.1904 4.2984
32.7121 -78.1896 4.2869
32.9229 -78.1902 4.2606
33.1316 -78.1881 4.2622
33.3423 -78.1885 4.2384
33.5539 -78.1899 4.204
33.7629 -78.188 4.2037
33.9709 -78.1849 4.2158
34.1801 -78.1832 4.214
34.3905 -78.183 4.1959
34.6012 -78.1832 4.1745
34.8104 -78.1815 4.1727
35.0195 -78.1796 4.1723
35.2295 -78.1788 4.1608
35.4411 -78.1798 4.1312
35.6529 -78.181 4.0999
35.863 -78.1801 4.0891
36.0711 -78.1769 4.102
36.2786 -78.1732 4.1209
36.4874 -78.1709 4.1249
36.6987 -78.1714 4.1012
36.9089 -78.1704 4.0912
37.1101 -78.1598 4.1805
37.3148 -78.1532 4.2289
37.5344 -78.1624 4.116
37.7469 -78.164 4.0805
37.9564 -78.1624 4.078
38.1677 -78.1625 4.0573
38.3798 -78.1635 4.0284
38.5921 -78.1646 3.9976
38.8032 -78.1644 3.9808
39.016 -78.166 3.9457
39.2303 -78.169 3.8968
39.4448 -78.172 3.8471
39.6613 -78.177 3.7776
39.8767 -78.1807 3.7206
40.0906 -78.1829 3.6791
40.2993 -78.1801 3.6893
40.509 -78.1781 3.6904
40.7213 -78.1787 3.6657
40.9355 -78.181 3.6242
41.1499 -78.1833 3.5815
41.3634 -78.1849 3.5472
41.5764 -78.1858 3.5187
41.7866 -78.1842 3.5165
41.996 -78.1818 3.5226
42.2061 -78.1801 3.5217
42.4192 -78.181 3.4938
42.6353 -78.1845 3.4394
42.8496 -78.1864 3.4021
43.0646 -78.1888 3.3587
43.2798 -78.1913 3.3152
43.4942 -78.193 3.2788
43.7109 -78.1967 3.2236
43.9274 -78.2001 3.1705
44.1404 -78.2005 3.1482
44.351 -78.1988 3.1467
44.556 -78.1925 3.1935
44.7641 -78.1888 3.2132
44.9803 -78.1917 3.1647
45.1926 -78.1914 3.1498
45.4038 -78.1902 3.1444
45.6198 -78.1928 3.0996
45.84 -78.1987 3.0213
46.0608 -78.2049 2.9395
46.2797 -78.2095 2.8743
46.4959 -78.2119 2.8318
46.7122 -78.2144 2.7886
46.927 -78.2157 2.7576
47.1429 -78.2177 2.7191
47.3623 -78.2223 2.654
47.5786 -78.2245 2.6135
47.7973 -78.2285 2.5554
48.0133 -78.2303 2.5186
48.222 -78.2267 2.538
48.4272 -78.2205 2.5834
48.633 -78.2148 2.624
48.8397 -78.2098 2.6573
49.0471 -78.2053 2.6857
49.2564 -78.2023 2.6994
49.4678 -78.2007 2.6984
49.6835 -78.2022 2.6654
49.9009 -78.2048 2.6205
50.1155 -78.2055 2.5966
50.3288 -78.2051 2.5825
50.5433 -78.2056 2.5606
50.7612 -78.2084 2.5147
50.9853 -78.2154 2.425
51.2247 -78.2327 2.2302
51.4609 -78.2477 2.0598
51.6782 -78.2496 2.0223
51.8924 -78.2495 2.0063
52.1155 -78.2553 1.9302
52.3367 -78.2597 1.8673
52.555 -78.2622 1.825
52.7725 -78.264 1.789
52.9942 -78.2685 1.7253
53.2156 -78.2728 1.6642
53.4317 -78.2736 1.6391
53.6446 -78.2722 1.6359
53.8581 -78.2713 1.6286
54.0681 -78.2681 1.6437
54.2784 -78.2651 1.6576
54.4899 -78.2629 1.6634
54.7041 -78.2624 1.6517
54.9228 -78.2646 1.6119
55.1409 -78.2664 1.5764
55.3635 -78.2709 1.5131
55.588 -78.2766 1.4383
55.8126 -78.2823 1.3633
56.0414 -78.2903 1.2637
56.2703 -78.2984 1.1641
56.5032 -78.3087 1.0413
56.7343 -78.3179 0.9303
56.9623 -78.3251 0.8399
57.1863 -78.3298 0.7747
57.4082 -78.3332 0.7234
57.6275 -78.3351 0.6876
57.8502 -78.3389 0.6322
58.0745 -78.3435 0.5679
58.2971 -78.3471 0.5146
58.52 -78.3508 0.4597
58.7503 -78.3587 0.3624
-16.6527 -79.6933 -3.0725
-16.3597 -79.6187 -2.3635
-16.1066 -79.5799 -2.0072
-15.846 -79.5335 -1.5765
-15.5703 -79.4724 -0.9998
-15.3235 -79.4376 -0.6834
-15.0901 -79.415 -0.4875
-14.8652 -79.4003 -0.3695
-14.6437 -79.3885 -0.2809
-14.4243 -79.3787 -0.2111
-14.2075 -79.3714 -0.1658
-13.9918 -79.3649 -0.1296
-13.7756 -79.3581 -0.089
-13.5572 -79.3488 -0.0248
-13.3397 -79.3404 0.0312
-13.1257 -79.3355 0.0524
-12.9105 -79.3293 0.0871
-12.6958 -79.3235 0.1165
-12.4796 -79.3162 0.1618
-12.261 -79.3063 0.2334
-12.044 -79.2979 0.289
-11.8266 -79.2889 0.3508
-11.6103 -79.2811 0.4012
-11.3956 -79.2749 0.4356
-11.1804 -79.2682 0.4757
-10.9669 -79.2632 0.4977
-10.7526 -79.2573 0.5294
-10.5367 -79.2495 0.5801
-10.3206 -79.2414 0.6337
-10.1042 -79.2329 0.6908
-9.8882 -79.2247 0.7452
-9.6731 -79.2175 0.7904
-9.4595 -79.2118 0.8194
-9.2468 -79.2073 0.8382
-9.0328 -79.2012 0.8717
-8.8162 -79.1919 0.9377
-8.6007 -79.1837 0.9924
-8.388 -79.1789 1.0132
-8.1747 -79.1733 1.0422
-7.9623 -79.1688 1.0606
-7.749 -79.163 1.0919
-7.5355 -79.157 1.1252
-7.3216 -79.1504 1.1636
-7.1072 -79.143 1.2107
-6.8944 -79.1377 1.2375
-6.683 -79.1341 1.2467
-6.4688 -79.1268 1.2928
-6.2557 -79.121 1.3251
-6.0447 -79.1179 1.3298
-5.8315 -79.1116 1.3657
-5.6191 -79.1065 1.39
-5.4066 -79.1012 1.4174
-5.19 -79.0899 1.5033
-4.973 -79.0778 1.597
-4.7602 -79.0717 1.6317
-4.5482 -79.0667 1.656
-4.3364 -79.0619 1.6773
-4.1229 -79.0545 1.7252
-3.9103 -79.0483 1.7613
-3.6977 -79.042 1.7975
-3.4846 -79.035 1.8417
-3.2711 -79.0271 1.8943
-3.058 -79.0197 1.9429
-2.8459 -79.0139 1.9743
-2.6342 -79.0086 2.0016
-2.4221 -79.0025 2.0365
-2.2094 -78.9954 2.0822
-1.9984 -78.9912 2.0984
-1.7868 -78.9858 2.1266
-1.5743 -78.9785 2.1733
-1.3613 -78.9706 2.2273
-1.1504 -78.9661 2.2464
-0.9395 -78.9614 2.2673
-0.7286 -78.9568 2.288
-0.5169 -78.9508 2.3226
-0.3043 -78.9427 2.3784
-0.0924 -78.9359 2.4202
0.1186 -78.9308 2.4466
0.3294 -78.9259 2.4699
0.5395 -78.9226 2.4781
0.7505 -78.9172 2.5065
0.9616 -78.9114 2.5388
1.1729 -78.9052 2.576
1.3842 -78.8987 2.6153
1.5951 -78.8932 2.6455
1.8053 -78.889 2.6624
2.0165 -78.8827 2.7008
2.2291 -78.8726 2.7764
2.4394 -78.868 2.797
2.6488 -78.8655 2.7979
2.8575 -78.8646 2.7821
3.0675 -78.8604 2.7989
3.2791 -78.8522 2.8564
3.4888 -78.8487 2.8662
3.6977 -78.8472 2.8565
3.9074 -78.8438 2.8667
4.1179 -78.8377 2.9027
4.3286 -78.8313 2.9416
4.5385 -78.8268 2.9628
4.7494 -78.8193 3.0124
4.9602 -78.8118 3.0631
5.1692 -78.8098 3.0589
5.3779 -78.8086 3.0465
5.5878 -78.8038 3.0699
5.7982 -78.7971 3.1127
6.0086 -78.7899 3.161
6.218 -78.7862 3.1737
6.4267 -78.7852 3.1594
6.6364 -78.7802 3.1847
6.8466 -78.7734 3.2288
7.0558 -78.7701 3.2382
7.2647 -78.7679 3.2355
7.4744 -78.7627 3.2635
7.6846 -78.7548 3.3193
7.8943 -78.7488 3.3555
8.1031 -78.7469 3.3502
8.312 -78.7444 3.3509
8.5212 -78.7405 3.3662
8.7307 -78.7346 3.4015
8.9403 -78.7281 3.4428
9.1494 -78.7241 3.4594
9.3583 -78.7214 3.4629
9.5675 -78.7164 3.4891
9.7769 -78.7101 3.5286
9.9861 -78.7046 3.5598
10.1951 -78.7004 3.5785
10.404 -78.6968 3.5915
10.6131 -78.6904 3.6323
10.8223 -78.6836 3.6762
11.0313 -78.6776 3.7137
11.2401 -78.6737 3.7295
11.4488 -78.6705 3.7383
11.6576 -78.6657 3.7624
11.8662 -78.6627 3.7698
12.0748 -78.6612 3.761
12.2835 -78.6575 3.7748
12.4923 -78.65 3.8276
12.7009 -78.6442 3.8625
12.9095 -78.6416 3.8653
13.1181 -78.6369 3.8895
13.3266 -78.6329 3.9064
13.5351 -78.6304 3.9093
13.7436 -78.6283 3.9069
13.9521 -78.6239 3.9283
14.1606 -78.6188 3.9563
14.369 -78.6141 3.9807
14.5774 -78.6102 3.9972
14.7858 -78.607 4.0067
14.9941 -78.603 4.0246
15.2024 -78.5975 4.0562
15.4108 -78.5948 4.0609
15.619 -78.5904 4.0826
15.8273 -78.5871 4.0931
16.0358 -78.585 4.0924
16.2442 -78.5832 4.0877
16.453 -78.584 4.0571
16.6621 -78.5873 4.0016
16.871 -78.5883 3.9693
17.0792 -78.5831 3.9988
17.2868 -78.5753 4.0552
17.4948 -78.5697 4.0891
17.703 -78.5658 4.1067
17.911 -78.561 4.1323
18.1187 -78.5547 4.1733
18.3265 -78.5498 4.2007
18.5344 -78.5448 4.2289
18.7421 -78.5393 4.2622
18.9499 -78.5347 4.2862
19.1578 -78.5307 4.3046
19.3659 -78.5273 4.317
19.5739 -78.524 4.3276
19.7822 -78.5218 4.3282
19.9902 -78.5182 4.3425
20.1979 -78.5138 4.365
20.4058 -78.5103 4.3786
20.6145 -78.5096 4.3639
20.8231 -78.5085 4.3535
21.0307 -78.5037 4.3799
21.238 -78.4982 4.4142
21.4458 -78.4943 4.4314
21.6539 -78.4918 4.435
21.8617 -78.488 4.4519
22.0694 -78.4841 4.4698
22.2775 -78.4816 4.4737
22.4848 -78.4767 4.5022
22.6921 -78.472 4.5279
22.8996 -78.4677 4.5496
23.1076 -78.4651 4.5548
23.3163 -78.4642 4.5425
23.5239 -78.4603 4.5604
23.731 -78.4554 4.5889
23.9384 -78.4513 4.6094
24.1452 -78.4457 4.6444
24.353 -78.4425 4.6551
24.5625 -78.4436 4.6238
24.7721 -78.4447 4.5918
24.9795 -78.4405 4.6126
25.1867 -78.4362 4.6352
25.3961 -78.4366 4.6101
25.6049 -78.4358 4.5982
25.8119 -78.4308 4.627
26.0203 -78.4292 4.6225
26.2296 -78.4292 4.6017
26.4394 -78.4302 4.5717
26.6483 -78.4291 4.5614
26.8565 -78.4267 4.5656
27.0663 -78.4274 4.5376
27.2763 -78.4284 4.5072
27.4848 -78.4265 4.5059
27.6928 -78.4237 4.5137
27.9012 -78.4216 4.5142
28.1102 -78.4206 4.5041
28.319 -78.4191 4.4991
28.5292 -78.4201 4.4689
28.739 -78.4203 4.4464
28.9481 -78.4191 4.4376
29.1571 -78.4178 4.4305
29.3661 -78.4167 4.4221
29.5756 -78.4161 4.4077
29.7857 -78.4164 4.3844
29.9942 -78.4142 4.3865
30.2014 -78.41 4.4093
30.4099 -78.4078 4.4112
30.6192 -78.4069 4.4007
30.8277 -78.4045 4.4045
31.036 -78.4021 4.4093
31.245 -78.4005 4.4051
31.4549 -78.4003 4.3874
31.6646 -78.3997 4.3735
31.8735 -78.398 4.3708
32.0842 -78.3988 4.3436
32.2957 -78.4006 4.3056
32.5059 -78.4005 4.2863
32.7143 -78.398 4.2918
32.9246 -78.398 4.2729
33.1341 -78.3968 4.2651
33.3464 -78.3994 4.2196
33.5585 -78.4015 4.1787
33.768 -78.4001 4.1728
33.9767 -78.3978 4.1766
34.1853 -78.3955 4.181
34.3961 -78.3957 4.1588
34.6073 -78.3965 4.1318
34.8163 -78.3944 4.1333
35.0266 -78.3939 4.1191
35.2382 -78.3951 4.0886
35.4495 -78.3957 4.0633
35.6601 -78.3954 4.0463
35.8709 -78.3953 4.0279
36.0797 -78.3929 4.0331
36.2904 -78.3927 4.0161
36.5004 -78.3917 4.0075
36.709 -78.389 4.0158
36.9179 -78.3867 4.0199
37.1252 -78.3826 4.0419
37.3336 -78.3797 4.0522
37.5454 -78.3806 4.0247
37.7551 -78.379 4.0215
37.9648 -78.3776 4.0171
38.1751 -78.3767 4.0075
38.3864 -78.3768 3.9872
38.5967 -78.3759 3.9784
38.805 -78.3728 3.9903
39.0167 -78.3733 3.9666
39.2317 -78.377 3.9107
39.447 -78.3809 3.8526
39.664 -78.3864 3.7785
39.8807 -78.3915 3.7077
40.0948 -78.394 3.6646
40.3031 -78.3906 3.6798
40.5113 -78.3873 3.695
40.722 -78.3863 3.6862
40.9387 -78.391 3.6202
41.1545 -78.3948 3.5639
41.368 -78.3963 3.5299
41.5833 -78.3994 3.4798
41.7956 -78.3997 3.4586
42.0064 -78.3986 3.4519
42.2162 -78.3964 3.455
42.4262 -78.3946 3.4558
42.641 -78.397 3.4127
42.8556 -78.3992 3.3728
43.0695 -78.4005 3.3406
43.2828 -78.4014 3.3133
43.4966 -78.4028 3.2819
43.7157 -78.4085 3.2053
43.9335 -78.413 3.1415
44.1473 -78.4141 3.1126
44.3572 -78.4118 3.118
44.5611 -78.4045 3.1737
44.7688 -78.4005 3.1969
44.9844 -78.4029 3.1543
45.1948 -78.4011 3.1548
45.4065 -78.4002 3.1457
45.6263 -78.406 3.0695
45.846 -78.4115 2.9956
46.0652 -78.4165 2.927
46.2848 -78.4218 2.8559
46.5015 -78.4246 2.8095
46.7177 -78.427 2.7672
46.9334 -78.429 2.7294
47.1497 -78.4313 2.6882
47.3677 -78.4349 2.6339
47.5845 -78.4375 2.5895
47.8053 -78.4431 2.5154
48.0197 -78.4437 2.4917
48.2262 -78.4384 2.5276
48.431 -78.432 2.576
48.6373 -78.4266 2.6133
48.8452 -78.4224 2.6375
49.0536 -78.4186 2.6588
49.2637 -78.4161 2.6666
49.4747 -78.4143 2.6681
49.6883 -78.4142 2.6513
49.9046 -78.4161 2.6146
50.1207 -78.4178 2.5802
50.3327 -78.4166 2.5752
50.5459 -78.4161 2.5626
50.7645 -78.4195 2.5113
50.9932 -78.4298 2.3897
51.2351 -78.449 2.1778
51.4708 -78.4637 2.0109
51.6909 -78.4676 1.954
51.9035 -78.4664 1.9495
52.1216 -78.4688 1.908
52.3434 -78.4737 1.8413
52.5616 -78.476 1.8003
52.7781 -78.4772 1.7712
53.0002 -78.4821 1.7048
53.2217 -78.4865 1.6427
53.4391 -78.4881 1.6096
53.6527 -78.4872 1.6016
53.8652 -78.4857 1.6005
54.0746 -78.482 1.6207
54.2842 -78.4786 1.6389
54.4954 -78.4761 1.6468
54.7079 -78.4745 1.6465
54.9264 -78.4767 1.6074
55.148 -78.4807 1.5498
55.3702 -78.4851 1.4889
55.5944 -78.4906 1.4161
55.819 -78.4963 1.3418
56.0459 -78.5033 1.2536
56.274 -78.5109 1.1595
56.5056 -78.5206 1.0443
56.7376 -78.5304 0.9284
56.9669 -78.5385 0.8297
57.1928 -78.5444 0.7529
57.4138 -78.5473 0.7071
57.6339 -78.5496 0.6669
57.8575 -78.5539 0.6063
58.0808 -78.558 0.5482
58.3071 -78.5639 0.4724
58.5314 -78.5684 0.4101
58.7626 -78.5769 0.3075
-16.6207 -79.8805 -2.8054
-16.3364 -79.8131 -2.1727
-16.0885 -79.7786 -1.8618
-15.8215 -79.7259 -1.3719
-15.5557 -79.6734 -0.8849
-15.3179 -79.6469 -0.6515
-15.0869 -79.6263 -0.4775
-14.8627 -79.6122 -0.3657
-14.6415 -79.6006 -0.2799
-14.4226 -79.5913 -0.2158
-14.2045 -79.5825 -0.1568
-13.9875 -79.5749 -0.1091
-13.7721 -79.5687 -0.0753
-13.556 -79.5618 -0.0346
-13.34 -79.5549 0.0062
-13.1243 -79.5481 0.0456
-12.9076 -79.5404 0.0946
-12.695 -79.5368 0.103
-12.4794 -79.53 0.1424
-12.2597 -79.5189 0.2249
-12.0434 -79.5112 0.2735
-11.8264 -79.5027 0.3302
-11.6112 -79.496 0.369
-11.3956 -79.4889 0.4122
-11.1781 -79.4796 0.4773
-10.9635 -79.4734 0.5115
-10.7502 -79.4685 0.5331
-10.5355 -79.4621 0.5692
-10.3202 -79.4549 0.6137
-10.1035 -79.4459 0.6748
-9.8866 -79.4367 0.7391
-9.6709 -79.4288 0.7908
-9.4582 -79.4242 0.809
-9.2453 -79.4194 0.8303
-9.0309 -79.4128 0.8689
-8.8142 -79.4032 0.9365
-8.5998 -79.3964 0.9767
-8.3888 -79.3937 0.9774
-8.176 -79.3888 0.9998
-7.9617 -79.3819 1.0413
-7.7464 -79.3735 1.0972
-7.5326 -79.3671 1.1342
-7.3195 -79.3615 1.1631
-7.1052 -79.3543 1.2077
-6.8923 -79.3488 1.2358
-6.6812 -79.3456 1.2418
-6.4687 -79.3406 1.2647
-6.2544 -79.3331 1.3132
-6.0416 -79.3275 1.3423
-5.8291 -79.3222 1.3684
-5.6173 -79.3178 1.3854
-5.4058 -79.3139 1.3986
-5.1905 -79.3045 1.465
-4.9734 -79.2922 1.5604
-4.76 -79.2853 1.6035
-4.5476 -79.2797 1.633
-4.3348 -79.2733 1.6695
-4.1218 -79.2668 1.7086
-3.9086 -79.2597 1.7527
-3.6958 -79.2531 1.7921
-3.4826 -79.2458 1.8387
-3.2698 -79.2391 1.8797
-3.0571 -79.2323 1.9208
-2.8447 -79.2259 1.9586
-2.6329 -79.2205 1.9865
-2.4214 -79.2154 2.0112
-2.2088 -79.2085 2.0539
-1.9972 -79.2032 2.0815
-1.7852 -79.197 2.117
-1.5734 -79.1911 2.1498
-1.3608 -79.1838 2.1973
-1.1489 -79.1776 2.2329
-0.937 -79.1711 2.2723
-0.7254 -79.1652 2.305
-0.5155 -79.1625 2.3073
-0.3037 -79.156 2.3466
-0.0913 -79.1482 2.3986
0.1203 -79.1419 2.436
0.3315 -79.1362 2.4671
0.5415 -79.1329 2.4745
0.7519 -79.1289 2.4897
0.9637 -79.1217 2.5354
1.1755 -79.1143 2.5841
1.3867 -79.1082 2.6194
1.5976 -79.1026 2.65
1.8082 -79.0974 2.677
2.0191 -79.0915 2.7102
2.2306 -79.0842 2.7578
2.4408 -79.0798 2.7771
2.651 -79.0753 2.7968
2.8586 -79.0771 2.7544
3.0685 -79.0734 2.7669
3.281 -79.0627 2.8481
3.4904 -79.0601 2.8492
3.6991 -79.0594 2.832
3.9093 -79.0544 2.8569
4.1199 -79.0482 2.8945
4.33 -79.0434 2.9179
4.5403 -79.0378 2.9484
4.7513 -79.03 3.0022
4.9621 -79.0224 3.0525
5.1709 -79.0214 3.0389
5.3798 -79.0197 3.0318
5.5896 -79.0149 3.0547
5.8 -79.0082 3.0975
6.0104 -79.0013 3.142
6.2199 -78.9973 3.1574
6.4288 -78.9955 3.1517
6.6388 -78.9894 3.1879
6.8492 -78.9815 3.2422
7.0581 -78.9796 3.2373
7.2666 -78.9795 3.2142
7.4763 -78.9741 3.2443
7.6866 -78.9653 3.3075
7.8962 -78.96 3.3364
8.1051 -78.9579 3.3338
8.314 -78.9555 3.334
8.5233 -78.9511 3.354
8.7325 -78.947 3.3712
8.9417 -78.9433 3.384
9.151 -78.9381 3.4127
9.3603 -78.9331 3.4382
9.5697 -78.927 3.4753
9.7791 -78.9203 3.5184
9.9884 -78.9146 3.5523
10.1973 -78.9111 3.5637
10.406 -78.9092 3.5596
10.6153 -78.9017 3.6103
10.8247 -78.8923 3.6811
11.0337 -78.8863 3.7172
11.2423 -78.8846 3.7109
11.4509 -78.8831 3.703
11.6598 -78.8776 3.7347
11.8685 -78.8741 3.7463
12.077 -78.8737 3.7269
12.2858 -78.869 3.751
12.4946 -78.8607 3.8106
12.7033 -78.8536 3.8578
12.9119 -78.8507 3.8646
13.1204 -78.848 3.8686
13.329 -78.8435 3.8903
13.5375 -78.8393 3.9097
13.746 -78.8365 3.9141
13.9545 -78.8334 3.9223
14.163 -78.828 3.9534
14.3714 -78.8237 3.9744
14.5798 -78.8205 3.9837
14.7883 -78.8174 3.9921
14.9966 -78.8128 4.0152
15.2049 -78.8076 4.0444
15.4134 -78.806 4.0382
15.6215 -78.8 4.0756
15.8297 -78.7954 4.0986
16.0383 -78.7944 4.0862
16.2469 -78.7942 4.0666
16.4557 -78.7956 4.0299
16.6648 -78.798 3.9836
16.8734 -78.797 3.972
17.0814 -78.7908 4.0118
17.2893 -78.7842 4.0555
17.4974 -78.7795 4.0801
17.7054 -78.7747 4.1062
17.913 -78.7676 4.1543
18.1206 -78.7608 4.2003
18.3289 -78.7578 4.208
18.5372 -78.7552 4.2123
18.7448 -78.7494 4.2482
18.9523 -78.7431 4.2891
19.1607 -78.7411 4.2872
19.369 -78.739 4.2873
19.5771 -78.7358 4.2971
19.7851 -78.732 4.3136
19.9928 -78.7276 4.3359
20.2005 -78.723 4.3598
20.4084 -78.7192 4.3761
20.6171 -78.7185 4.362
20.8258 -78.7179 4.3468
21.0331 -78.7121 4.3825
21.2404 -78.7066 4.4169
21.4482 -78.7027 4.4343
21.6564 -78.7005 4.4344
21.8644 -78.6974 4.4441
22.0723 -78.6939 4.4577
22.2803 -78.6912 4.464
22.4877 -78.6864 4.491
22.6948 -78.6809 4.5241
22.9026 -78.6777 4.5356
23.1111 -78.6763 4.5284
23.3193 -78.6738 4.532
23.5268 -78.6698 4.5511
23.7338 -78.6645 4.5834
23.9412 -78.6603 4.604
24.1488 -78.6569 4.6177
24.3569 -78.6543 4.6228
24.5657 -78.6536 4.609
24.7751 -78.6542 4.5823
24.9826 -78.6505 4.5983
25.1894 -78.645 4.6324
25.3979 -78.6435 4.6267
25.6065 -78.6422 4.6198
25.8145 -78.6396 4.6245
26.024 -78.64 4.6007
26.2329 -78.6392 4.5881
26.4412 -78.6371 4.5883
26.65 -78.6359 4.5796
26.8589 -78.6351 4.5678
27.0684 -78.6352 4.5458
27.2774 -78.6342 4.5357
27.4852 -78.6312 4.5455
27.6936 -78.6291 4.5467
27.9031 -78.629 4.5268
28.1135 -78.6304 4.4929
28.3229 -78.6301 4.4759
28.5321 -78.6293 4.4642
28.7408 -78.6276 4.4609
28.9505 -78.6275 4.4411
29.1601 -78.6273 4.424
29.3691 -78.626 4.4167
29.5782 -78.6249 4.4079
29.7885 -78.6255 4.3819
29.9972 -78.6237 4.3797
30.2045 -78.6196 4.4009
30.4124 -78.6165 4.4126
30.6223 -78.6164 4.3935
30.8319 -78.6158 4.38
31.0403 -78.6133 4.3847
31.2492 -78.6117 4.3813
31.4588 -78.611 4.3683
31.6688 -78.6108 4.3508
31.878 -78.6095 4.3445
32.0891 -78.6108 4.3121
32.3009 -78.613 4.2701
32.5102 -78.6118 4.2635
32.7175 -78.6076 4.2856
32.9268 -78.6063 4.279
33.1381 -78.6075 4.2476
33.3509 -78.6108 4.1951
33.5625 -78.6123 4.161
33.7721 -78.6111 4.1538
33.981 -78.6091 4.155
34.1891 -78.6059 4.1672
34.4006 -78.607 4.1367
34.6118 -78.6078 4.1096
34.8212 -78.6063 4.1059
35.0324 -78.6069 4.0806
35.2446 -78.6086 4.0444
35.4548 -78.608 4.0315
35.6651 -78.6073 4.0192
35.8756 -78.6069 4.0045
36.0863 -78.6067 3.9876
36.3002 -78.6101 3.9347
36.512 -78.611 3.9065
36.7203 -78.608 3.9182
36.9288 -78.6051 3.9282
37.1381 -78.6031 3.9292
37.3486 -78.6025 3.9169
37.5568 -78.5992 3.9306
37.7647 -78.5958 3.9466
37.9748 -78.5946 3.9398
38.183 -78.5915 3.9522
38.3927 -78.5898 3.9503
38.6031 -78.589 3.9404
38.8101 -78.5846 3.966
39.0208 -78.584 3.9533
39.2354 -78.5874 3.9004
39.4491 -78.5898 3.8583
39.6634 -78.5926 3.8119
39.8804 -78.598 3.7386
40.0953 -78.6013 3.6869
40.3046 -78.5991 3.6915
40.5147 -78.5975 3.6883
40.7242 -78.5954 3.6916
40.9408 -78.6001 3.6262
41.1578 -78.605 3.5586
41.3728 -78.608 3.5109
41.5882 -78.6112 3.4601
41.8002 -78.6112 3.4416
42.0116 -78.6106 3.4294
42.2243 -78.6112 3.4058
42.4359 -78.6107 3.3926
42.6478 -78.6105 3.3766
42.8607 -78.6112 3.3519
43.075 -78.613 3.3158
43.2878 -78.6134 3.2933
43.5003 -78.6136 3.2738
43.7189 -78.6189 3.2024
43.9392 -78.6256 3.1168
44.1531 -78.6268 3.0871
44.3611 -78.6229 3.1086
44.5662 -78.6166 3.1543
44.7761 -78.6143 3.1589
44.9892 -78.6148 3.1371
45.1989 -78.6122 3.1447
45.4117 -78.6124 3.1255
45.6319 -78.6184 3.0471
45.8509 -78.6234 2.979
46.0693 -78.6279 2.9169
46.2896 -78.6337 2.8403
46.5077 -78.6377 2.7823
46.724 -78.6402 2.74
46.9402 -78.6426 2.6982
47.1583 -78.6464 2.6429
47.376 -78.6498 2.5912
47.5923 -78.652 2.5514
47.8109 -78.6559 2.4947
48.0237 -78.6554 2.4826
48.2288 -78.649 2.5296
48.4345 -78.6431 2.5711
48.6417 -78.6384 2.6014
48.8503 -78.6348 2.6209
49.0593 -78.6314 2.6374
49.2684 -78.6281 2.6531
49.4796 -78.6264 2.6532
49.6956 -78.6282 2.6186
49.912 -78.6301 2.5815
50.126 -78.6303 2.5627
50.3384 -78.6294 2.5553
50.5526 -78.6297 2.5353
50.7707 -78.6327 2.4873
51.0022 -78.645 2.3466
51.243 -78.6636 2.142
51.4762 -78.6767 1.9933
51.6986 -78.6822 1.9208
51.9144 -78.6832 1.8944
52.1317 -78.6851 1.8582
52.3509 -78.6882 1.81
52.5683 -78.6901 1.7743
52.7842 -78.6909 1.7491
53.0047 -78.6947 1.6939
53.2268 -78.6995 1.6283
53.4432 -78.7006 1.6012
53.6582 -78.7006 1.5842
53.871 -78.6992 1.5819
54.08 -78.6953 1.604
54.2897 -78.6919 1.6216
54.4984 -78.6879 1.6461
54.7102 -78.6858 1.6502
54.9306 -78.6892 1.5991
55.1533 -78.694 1.5345
55.376 -78.6987 1.4703
55.5994 -78.7038 1.403
55.8225 -78.7086 1.338
56.0507 -78.7165 1.2421
56.2812 -78.7257 1.1328
56.5134 -78.7358 1.0144
56.7464 -78.7462 0.8924
56.9771 -78.7552 0.7856
57.2017 -78.7604 0.7168
57.4216 -78.7627 0.6777
57.6407 -78.7645 0.6433
57.8647 -78.7691 0.5805
58.0867 -78.7725 0.5302
58.3123 -78.7779 0.4593
58.5411 -78.7851 0.3702
58.7749 -78.7951 0.2527
-16.8848 -80.1451 -3.2678
-16.5919 -80.0701 -2.5663
-16.3258 -80.019 -2.0958
-16.0658 -79.9729 -1.6749
-15.8004 -79.9211 -1.1976
-15.5476 -79.8805 -0.8302
-15.3099 -79.8537 -0.5966
-15.0829 -79.8369 -0.4603
-14.8605 -79.8244 -0.3649
-14.6385 -79.812 -0.272
-14.4198 -79.8028 -0.2091
-14.2022 -79.7945 -0.1556
-13.9858 -79.7874 -0.1131
-13.7701 -79.7809 -0.0765
-13.5551 -79.775 -0.0466
-13.3378 -79.7668 0.0073
-13.1207 -79.7586 0.0602
-12.9044 -79.7513 0.1046
-12.6921 -79.7479 0.1108
-12.4772 -79.7419 0.1424
-12.2596 -79.7329 0.2031
-12.0423 -79.7241 0.2621
-11.8256 -79.7159 0.3156
-11.6103 -79.7092 0.3549
-11.3943 -79.7015 0.4029
-11.177 -79.6924 0.4653
-10.9613 -79.6849 0.5123
-10.7479 -79.6799 0.5342
-10.5333 -79.6735 0.5699
-10.3179 -79.6662 0.6149
-10.102 -79.6582 0.6669
-9.8865 -79.6505 0.7155
-9.6712 -79.643 0.7628
-9.4578 -79.6377 0.7883
-9.2432 -79.6307 0.8296
-9.0285 -79.6238 0.8716
-8.8134 -79.6161 0.9204
-8.5999 -79.6104 0.9501
-8.3879 -79.6065 0.9621
-8.176 -79.6026 0.9733
-7.9609 -79.5947 1.0251
-7.7453 -79.586 1.0837
-7.5323 -79.5806 1.1104
-7.3198 -79.5759 1.1307
-7.1054 -79.5685 1.1771
-6.892 -79.5623 1.2114
-6.6802 -79.5583 1.2251
-6.4673 -79.5527 1.254
-6.2533 -79.5455 1.2982
-6.0403 -79.5395 1.331
-5.8275 -79.5339 1.3606
-5.6151 -79.5288 1.3847
-5.4037 -79.525 1.3963
-5.1905 -79.5184 1.4346
-4.9741 -79.5073 1.5184
-4.7603 -79.4996 1.5673
-4.5478 -79.4939 1.5976
-4.3348 -79.4873 1.6366
-4.1219 -79.4809 1.6746
-3.9077 -79.4722 1.7337
-3.6944 -79.4649 1.7798
-3.4815 -79.458 1.822
-3.2683 -79.4506 1.8691
-3.0558 -79.4442 1.9071
-2.8437 -79.4384 1.9383
-2.6313 -79.4319 1.9766
-2.4196 -79.4266 2.0038
-2.2076 -79.4206 2.0373
-1.995 -79.4136 2.0801
-1.7839 -79.4091 2.0999
-1.5727 -79.4042 2.1229
-1.361 -79.3984 2.1539
-1.1487 -79.3915 2.1972
-0.9357 -79.3831 2.254
-0.7239 -79.3767 2.292
-0.5144 -79.3747 2.2865
-0.303 -79.3692 2.3157
-0.0906 -79.3614 2.3673
0.1213 -79.3544 2.4112
0.3327 -79.3484 2.4452
0.543 -79.3445 2.4594
0.7538 -79.3395 2.483
0.9654 -79.3329 2.5238
1.1767 -79.3267 2.5598
1.3881 -79.3201 2.6
1.5989 -79.3147 2.6283
1.8102 -79.3078 2.6711
2.022 -79.2999 2.7242
2.232 -79.2962 2.7366
2.4417 -79.2929 2.7445
2.6515 -79.2894 2.7547
2.8595 -79.2905 2.7198
3.0699 -79.2855 2.7438
3.2819 -79.2763 2.8104
3.4918 -79.2724 2.8248
3.701 -79.27 2.8232
3.9113 -79.265 2.8491
4.1217 -79.2593 2.8807
4.3315 -79.2555 2.8941
4.5421 -79.2492 2.9319
4.753 -79.2414 2.9842
4.9636 -79.2347 3.0259
5.1729 -79.2318 3.0302
5.3824 -79.2282 3.0423
5.5923 -79.2233 3.0667
5.8024 -79.2176 3.0982
6.0121 -79.2129 3.1214
6.2216 -79.2091 3.1349
6.4311 -79.2052 3.1492
6.6415 -79.1975 3.2011
6.8519 -79.1896 3.2557
7.0607 -79.1879 3.2486
7.269 -79.1886 3.2179
7.4782 -79.1851 3.2286
7.6883 -79.1777 3.2777
7.8978 -79.1728 3.3031
8.107 -79.1692 3.3151
8.3161 -79.1662 3.321
8.5253 -79.1623 3.3358
8.7344 -79.1591 3.3437
8.9434 -79.156 3.3509
9.1528 -79.1508 3.3788
9.3621 -79.1461 3.4022
9.5716 -79.1394 3.445
9.7811 -79.1325 3.4893
9.9902 -79.1275 3.5159
10.1992 -79.1241 3.5266
10.4082 -79.1199 3.5443
10.6175 -79.1118 3.601
10.8269 -79.1034 3.661
11.0359 -79.0975 3.6963
11.2445 -79.0956 3.6925
11.4529 -79.0965 3.6601
11.6618 -79.0918 3.6843
11.8706 -79.087 3.7082
12.0792 -79.0865 3.6906
12.288 -79.0813 3.7191
12.4969 -79.0721 3.7869
12.7057 -79.0641 3.8432
12.9143 -79.0603 3.8578
13.1228 -79.0579 3.8595
13.3314 -79.0534 3.8816
13.5399 -79.0499 3.8928
13.7485 -79.0462 3.9068
13.957 -79.0444 3.9027
14.1655 -79.0407 3.9164
14.3739 -79.0351 3.9493
14.5823 -79.0305 3.9727
14.7907 -79.0263 3.9918
14.9991 -79.0235 3.9971
15.2075 -79.0193 4.0164
15.4159 -79.0157 4.0298
15.624 -79.0094 4.0702
15.8323 -79.0058 4.0829
16.0409 -79.005 4.0692
16.2493 -79.0027 4.0696
16.4579 -79.0021 4.0534
16.6667 -79.0025 4.0278
16.8752 -79.0006 4.0243
17.0832 -78.9951 4.0575
17.2913 -78.9903 4.083
17.4997 -78.9874 4.0897
17.7076 -78.982 4.1213
17.9153 -78.9752 4.1666
18.1231 -78.9695 4.2012
18.3314 -78.967 4.2045
18.5398 -78.9648 4.2045
18.7475 -78.959 4.24
18.9552 -78.9538 4.2704
19.1638 -78.9527 4.2592
19.3718 -78.9492 4.2722
19.5797 -78.9449 4.2939
19.7877 -78.9415 4.3053
19.9956 -78.9373 4.3259
20.203 -78.9316 4.3613
20.4111 -78.9286 4.3693
20.6198 -78.928 4.3537
20.8281 -78.9259 4.3539
21.0354 -78.9201 4.3899
21.2431 -78.9158 4.4109
21.4509 -78.9122 4.4257
21.6594 -78.9105 4.421
21.8675 -78.9077 4.4277
22.075 -78.9034 4.4495
22.2827 -78.8994 4.4686
22.4902 -78.895 4.4909
22.6976 -78.8905 4.5149
22.9059 -78.8884 4.5144
23.1143 -78.8867 4.5101
23.3217 -78.8823 4.5332
23.5288 -78.8769 4.5657
23.7356 -78.8712 4.6013
23.9434 -78.8681 4.6116
24.152 -78.8669 4.6026
24.3601 -78.8645 4.6062
24.5678 -78.8612 4.6181
24.7769 -78.861 4.5992
24.9856 -78.8599 4.5899
25.1926 -78.855 4.6181
25.4008 -78.8528 4.6199
25.6088 -78.8501 4.626
25.8168 -78.8476 4.6302
26.0262 -78.8479 4.6069
26.2347 -78.8462 4.604
26.4423 -78.8428 4.6172
26.6514 -78.8422 4.6024
26.8609 -78.8425 4.5797
27.07 -78.8418 4.5661
27.2783 -78.8398 4.5663
27.4861 -78.8366 4.5779
27.6947 -78.835 4.5735
27.9052 -78.8368 4.5354
28.1164 -78.8398 4.4856
28.325 -78.838 4.4844
28.5334 -78.8357 4.4864
28.7416 -78.8333 4.4908
28.9509 -78.8326 4.4776
29.1606 -78.8325 4.459
29.3698 -78.8317 4.4476
29.5788 -78.8303 4.4412
29.7884 -78.8299 4.4256
29.997 -78.828 4.4247
30.2053 -78.8256 4.4295
30.4142 -78.824 4.4253
30.6249 -78.8251 4.3948
30.8344 -78.8245 4.3815
31.0433 -78.8228 4.3787
31.2522 -78.821 4.3767
31.4621 -78.8209 4.3586
31.6726 -78.8215 4.3336
31.8811 -78.8191 4.3373
32.092 -78.8201 4.3082
32.3036 -78.8222 4.2685
32.5129 -78.8208 4.2631
32.7217 -78.8187 4.2641
32.9313 -78.8178 4.2543
33.1432 -78.8199 4.2138
33.3551 -78.8219 4.1751
33.5659 -78.8223 4.1514
33.7755 -78.8212 4.1437
33.9845 -78.8192 4.1447
34.1936 -78.8174 4.1439
34.4056 -78.8192 4.1065
34.6164 -78.8194 4.0859
34.826 -78.818 4.0808
35.0369 -78.8183 4.0582
35.2484 -78.8191 4.0313
35.4594 -78.8195 4.0094
35.6711 -78.8205 3.9802
35.8811 -78.8195 3.9716
36.0917 -78.8191 3.9564
36.3067 -78.8238 3.8914
36.5194 -78.8258 3.8528
36.7301 -78.8253 3.8391
36.9393 -78.8232 3.8411
37.1495 -78.8222 3.8327
37.3599 -78.8213 3.8225
37.5682 -78.8181 3.8363
37.7761 -78.8145 3.8533
37.9855 -78.8126 3.8536
38.1934 -78.809 3.8709
38.4011 -78.8052 3.8902
38.6112 -78.804 3.8839
38.8182 -78.7996 3.9096
39.0275 -78.7975 3.9125
39.2395 -78.7982 3.8865
39.4517 -78.799 3.8603
39.6635 -78.7994 3.8381
39.8784 -78.8029 3.7856
40.0927 -78.8056 3.7398
40.3054 -78.8067 3.7107
40.5179 -78.8076 3.6838
40.7276 -78.8057 3.6851
40.9419 -78.8082 3.6421
41.1611 -78.8153 3.5535
41.3778 -78.8199 3.4893
41.5926 -78.8225 3.4452
41.8049 -78.8228 3.4239
42.0158 -78.8218 3.4164
42.2296 -78.8234 3.3823
42.4436 -78.8251 3.3477
42.6549 -78.8243 3.3375
42.8667 -78.8239 3.3239
43.0816 -78.8263 3.2823
43.2939 -78.8264 3.2639
43.5053 -78.8255 3.2544
43.7208 -78.8283 3.2096
43.9417 -78.8356 3.1187
44.158 -78.8388 3.069
44.3658 -78.8347 3.0925
44.5725 -78.8297 3.1248
44.7828 -78.8277 3.1266
44.9939 -78.8265 3.1213
45.2058 -78.8258 3.1107
45.4187 -78.826 3.0909
45.6358 -78.8296 3.038
45.855 -78.8348 2.9686
46.0736 -78.8395 2.9044
46.2925 -78.8443 2.8392
46.5113 -78.8489 2.7758
46.7301 -78.8534 2.7139
46.9478 -78.857 2.6608
47.165 -78.8601 2.6123
47.381 -78.8621 2.5748
47.5983 -78.8652 2.5268
47.8153 -78.8679 2.4826
48.0272 -78.8667 2.4774
48.2347 -78.8621 2.506
48.4398 -78.8557 2.5524
48.6465 -78.8506 2.5871
48.8555 -78.8472 2.6036
49.0625 -78.8423 2.635
49.269 -78.8372 2.6698
49.4826 -78.8372 2.6521
49.7015 -78.8411 2.5963
49.9182 -78.8433 2.5574
50.1305 -78.8423 2.5505
50.3434 -78.8417 2.5397
50.5595 -78.8434 2.5064
50.7796 -78.8479 2.4446
51.0089 -78.8587 2.3198
51.2483 -78.8764 2.1256
51.4797 -78.8884 1.989
51.7037 -78.8951 1.9052
51.9223 -78.8979 1.8603
52.1404 -78.9004 1.8188
52.3571 -78.9019 1.7875
52.5757 -78.9046 1.7437
52.7946 -78.9074 1.6988
53.0123 -78.9094 1.6625
53.2326 -78.9131 1.6086
53.4482 -78.9136 1.5875
53.6611 -78.9123 1.5841
53.8734 -78.9105 1.5851
54.0835 -78.9073 1.6004
54.2937 -78.9043 1.6147
54.5028 -78.9005 1.6364
54.7148 -78.8986 1.6392
54.935 -78.9019 1.5896
55.1592 -78.9076 1.5159
55.383 -78.9131 1.445
55.6065 -78.9183 1.3767
55.8286 -78.9225 1.3182
56.0557 -78.9298 1.2292
56.2917 -78.9425 1.0857
56.5245 -78.953 0.964
56.7547 -78.9619 0.8594
56.9855 -78.971 0.7522
57.2078 -78.9748 0.6977
57.4292 -78.978 0.6497
57.6515 -78.9817 0.5961
57.8715 -78.984 0.5573
58.0938 -78.9876 0.5055
58.3204 -78.9937 0.4287
58.5558 -79.0049 0.3005
-16.8536 -80.3329 -3.0095
-16.5715 -80.2672 -2.4021
-16.3126 -80.2224 -1.9966
-16.0402 -80.1641 -1.4613
-15.7817 -80.1183 -1.0463
-15.5377 -80.0857 -0.7582
-15.3027 -80.0613 -0.5497
-15.0765 -80.0452 -0.4203
-14.8566 -80.0349 -0.3477
-14.6375 -80.0253 -0.2826
-14.4192 -80.0165 -0.2239
-14.2009 -80.0074 -0.1632
-13.9843 -80.0001 -0.1193
-13.7686 -79.9935 -0.0823
-13.5527 -79.9868 -0.0441
-13.3359 -79.979 0.0049
-13.1199 -79.9719 0.0464
-12.9035 -79.9644 0.0931
-12.6904 -79.9602 0.1066
-12.4756 -79.9543 0.1371
-12.2592 -79.9465 0.1858
-12.0425 -79.9385 0.2376
-11.8257 -79.93 0.2926
-11.6094 -79.9222 0.3421
-11.3929 -79.914 0.3952
-11.1761 -79.9054 0.4518
-10.961 -79.8985 0.492
-10.7478 -79.8938 0.5112
-10.5322 -79.8863 0.5582
-10.3159 -79.8778 0.6142
-10.1 -79.8697 0.6659
-9.8855 -79.8632 0.7028
-9.671 -79.8567 0.7397
-9.4571 -79.8507 0.772
-9.2426 -79.844 0.811
-9.0284 -79.8375 0.8477
-8.8141 -79.8309 0.886
-8.5998 -79.8242 0.925
-8.3861 -79.8181 0.958
-8.1732 -79.813 0.9812
-7.9594 -79.8067 1.0162
-7.7451 -79.7997 1.0588
-7.5332 -79.7958 1.071
-7.3194 -79.7893 1.1081
-7.1056 -79.7827 1.1464
-6.8914 -79.7754 1.1909
-6.6794 -79.7711 1.2079
-6.4671 -79.7664 1.2276
-6.2539 -79.7602 1.2616
-6.0399 -79.753 1.3065
-5.8265 -79.7465 1.3436
-5.6137 -79.7408 1.374
-5.4022 -79.7368 1.3866
-5.1898 -79.7315 1.4131
-4.9741 -79.7213 1.4867
-4.7601 -79.7134 1.5377
-4.5475 -79.7075 1.5698
-4.334 -79.7003 1.6146
-4.1207 -79.693 1.6598
-3.9063 -79.6841 1.7214
-3.693 -79.6767 1.7678
-3.4805 -79.6705 1.8031
-3.2676 -79.6636 1.845
-3.0558 -79.6583 1.8713
-2.8433 -79.6519 1.9083
-2.6304 -79.6445 1.9551
-2.4181 -79.6382 1.9912
-2.2057 -79.6316 2.0307
-1.9942 -79.6265 2.0559
-1.7837 -79.623 2.0644
-1.5724 -79.618 2.0886
-1.3604 -79.6117 2.1245
-1.1478 -79.6042 2.1728
-0.9352 -79.5966 2.2224
-0.7237 -79.5909 2.2525
-0.5128 -79.5862 2.2737
-0.3014 -79.5806 2.3038
-0.0895 -79.5737 2.3461
0.1232 -79.5652 2.4039
0.3352 -79.558 2.4498
0.5455 -79.5541 2.4629
0.7556 -79.5506 2.4733
0.9667 -79.5449 2.5035
1.1773 -79.5402 2.5253
1.3888 -79.5334 2.5671
1.6003 -79.5265 2.61
1.8121 -79.5186 2.6626
2.0233 -79.512 2.7027
2.2322 -79.5109 2.6886
2.4421 -79.5073 2.7
2.6523 -79.5029 2.7181
2.8609 -79.5025 2.698
3.0714 -79.4973 2.7244
3.2827 -79.4899 2.7733
3.4934 -79.4839 2.8069
3.7031 -79.4804 2.8172
3.9129 -79.4767 2.8296
4.1232 -79.4714 2.8571
4.3335 -79.466 2.8863
4.5441 -79.4596 2.9247
4.7547 -79.4531 2.9643
4.965 -79.4471 2.999
5.1751 -79.4418 3.0265
5.3851 -79.4366 3.0536
5.5949 -79.4319 3.076
5.8041 -79.4293 3.0778
6.0136 -79.4256 3.0901
6.2236 -79.4199 3.1222
6.4331 -79.4159 3.1379
6.6434 -79.4088 3.1838
6.8538 -79.4006 3.2397
7.0626 -79.3991 3.2312
7.2713 -79.3981 3.2178
7.4803 -79.3959 3.2155
7.6898 -79.3913 3.2374
7.8991 -79.3875 3.2509
8.1087 -79.3821 3.2808
8.318 -79.3778 3.2995
8.5271 -79.3746 3.3071
8.7365 -79.37 3.3286
8.9455 -79.3674 3.3317
9.1547 -79.3628 3.3533
9.3642 -79.3571 3.3861
9.5736 -79.351 3.4224
9.783 -79.3448 3.4603
9.9924 -79.3386 3.498
10.2016 -79.3329 3.5308
10.4107 -79.3273 3.5623
10.62 -79.3203 3.6075
10.8291 -79.3144 3.6426
11.0381 -79.3088 3.6747
11.2469 -79.3051 3.6882
11.4552 -79.307 3.6466
11.664 -79.3042 3.6523
11.8728 -79.2991 3.6795
12.0815 -79.2962 3.6848
12.2904 -79.29 3.7233
12.4993 -79.2814 3.785
12.708 -79.274 3.8349
12.9166 -79.2703 3.8487
13.1252 -79.268 3.8482
13.3338 -79.2652 3.8538
13.5423 -79.2628 3.8547
13.7509 -79.2589 3.8707
13.9595 -79.2572 3.8647
14.168 -79.2536 3.8783
14.3764 -79.2471 3.9197
14.5848 -79.2424 3.9438
14.7932 -79.2374 3.9698
15.0017 -79.2354 3.9678
15.2101 -79.2311 3.9882
15.4183 -79.2252 4.0239
15.6265 -79.2194 4.0588
15.835 -79.2172 4.0578
16.0435 -79.216 4.0485
16.2517 -79.2116 4.0693
16.46 -79.2076 4.0873
16.6683 -79.2042 4.0983
16.8769 -79.2035 4.0839
17.0852 -79.2004 4.092
17.2935 -79.1972 4.1021
17.5018 -79.1939 4.1131
17.7097 -79.1885 4.144
17.9175 -79.1823 4.1835
18.1254 -79.1776 4.2081
18.3339 -79.1761 4.201
18.5423 -79.1738 4.2018
18.7499 -79.1678 4.2401
18.9578 -79.1633 4.2629
19.1661 -79.1607 4.2663
19.3743 -79.1581 4.2704
19.5821 -79.1535 4.2943
19.7901 -79.1497 4.3104
19.9982 -79.1466 4.3204
20.2059 -79.1418 4.3456
20.4138 -79.1383 4.3591
20.6225 -79.1376 4.3454
20.8307 -79.1349 4.3501
21.0382 -79.1297 4.3808
21.2458 -79.1252 4.4037
21.454 -79.1226 4.4083
21.6623 -79.1206 4.4068
21.8701 -79.1167 4.4249
22.0778 -79.1129 4.441
22.2858 -79.1096 4.4523
22.4931 -79.1046 4.4809
22.7005 -79.1 4.5054
22.909 -79.0986 4.4986
23.1175 -79.0971 4.4926
23.3248 -79.0922 4.5201
23.5316 -79.0865 4.5563
23.7389 -79.0818 4.5812
23.9468 -79.0788 4.5906
24.1551 -79.0769 4.5885
24.3626 -79.073 4.6068
24.5703 -79.0696 4.6194
24.7787 -79.0678 4.617
24.9873 -79.0667 4.6075
25.1955 -79.0644 4.6104
25.4039 -79.0626 4.6078
25.6118 -79.0597 4.6156
25.8201 -79.0577 4.6151
26.0284 -79.0556 4.6153
26.2362 -79.0526 4.6248
26.4441 -79.0497 4.6334
26.6534 -79.0497 4.6136
26.8634 -79.0509 4.5818
27.0727 -79.0509 4.5622
27.2804 -79.0475 4.5759
27.4875 -79.043 4.6
27.6965 -79.0422 4.588
27.9062 -79.0425 4.5649
28.1166 -79.0441 4.5294
28.3258 -79.0435 4.5154
28.5343 -79.0414 4.5166
28.7428 -79.0396 4.5148
28.9519 -79.0385 4.5056
29.1618 -79.039 4.4816
29.3705 -79.0372 4.4794
29.5784 -79.0342 4.4896
29.7873 -79.0327 4.4843
29.9958 -79.0306 4.4863
30.2053 -79.0301 4.4718
30.4147 -79.0295 4.4583
30.6256 -79.0309 4.4246
30.8357 -79.0313 4.4014
31.045 -79.0303 4.3924
31.2544 -79.0293 4.3828
31.4642 -79.0289 4.3672
31.6743 -79.029 4.3471
31.8837 -79.0279 4.3383
32.0941 -79.0283 4.3158
32.3041 -79.0281 4.2989
32.5144 -79.0282 4.2787
32.7255 -79.0293 4.2486
32.9363 -79.03 4.2229
33.149 -79.0331 4.1731
33.3596 -79.0333 4.1516
33.57 -79.0333 4.1334
